3.043790606553546940e-01,3.340627737095961391e-01,3.519959956947792956e-01,3.559633862165090812e-01,3.545601182467423285e-01,3.580720673338302906e-01,3.744302155569664281e-01,3.811014869295044627e-01,3.960949250747298200e-01,4.113960062293183784e-01,4.204780550189345378e-01,4.460136343906445644e-01,4.681543034162093386e-01,4.670405768561334270e-01,4.643237883074141092e-01,4.702119516368996055e-01,4.679804055836619958e-01,4.617965824911233197e-01,4.523640106213093759e-01,4.341187740268930839e-01,4.163597279151694530e-01,4.102668880592694745e-01,3.962184525154350823e-01,3.918202087368988784e-01,3.966602732815981969e-01,3.876449235300186702e-01,3.727607510132016633e-01,3.612563081725823078e-01,3.636185424889940565e-01,3.628897523705872374e-01,3.403663963645318091e-01,3.149407620104145433e-01,2.985285221665742728e-01,3.001102255892193482e-01,3.004922375050524397e-01,2.842006543232675764e-01,2.669854862845708054e-01,2.666904361843360771e-01,2.716312586269551410e-01,2.665888374824096907e-01,2.505354043482415638e-01,2.290395587581509906e-01,2.064618515607706539e-01,1.995796769088680478e-01,1.904798598652852892e-01,1.783490561436507083e-01,1.786329818210333487e-01,1.732872627028013979e-01,1.647652862962654674e-01,1.550375611316195112e-01,1.491300771031287831e-01,1.587809990098061896e-01,1.607582618074380187e-01,1.687519778285574701e-01,1.768482228871068040e-01,1.811314435856191674e-01,1.985557762670740467e-01,2.013482966094629345e-01,2.112126886196733500e-01,2.308902379934995863e-01,2.458273825806701340e-01,2.542302497915025494e-01,2.469014346652428082e-01,2.326889409842372858e-01,2.225753238095292685e-01,2.245160864970452141e-01,2.374980639810956862e-01,2.544645114847964851e-01,2.674941157082783572e-01,2.811070156253167585e-01,2.961532251340515121e-01,3.055220571409196229e-01,3.067258094456578599e-01,3.183213464118472280e-01,3.334192894542156727e-01,3.292489277194227126e-01,3.176893012284295881e-01,3.141796547839463827e-01,3.276590453328760422e-01,3.416051350323212055e-01,3.440669455723341930e-01,3.432502162881816976e-01,3.474622086131721743e-01,3.363584029553788879e-01,3.205393748780515639e-01,3.203518141713403433e-01,3.218454333108373144e-01,3.351322516522713402e-01,3.414540133336617100e-01,3.500868038215015909e-01,3.680070466267841844e-01,3.794028490920336449e-01,3.906965332615069397e-01,3.959762743708117316e-01,4.064444732737561572e-01,4.121327151752460227e-01,3.918118364811432608e-01,3.819377216332544567e-01,3.713889490223721834e-01,3.603316352463196703e-01,3.531136293924050928e-01,3.384696724240308652e-01,3.444855705239499577e-01,3.414733704676013448e-01,3.267599913706142889e-01,3.163544691546985588e-01,2.991670496000921609e-01,2.715925029454543949e-01,2.580847436133307249e-01,2.478251358423807227e-01,2.405631102509823427e-01,2.516005228584198283e-01,2.602519926433186637e-01,2.788896016026015667e-01,2.991915583169560411e-01,2.998146472955851571e-01,3.003040274899010376e-01,3.032416934803344177e-01,2.949987129461196234e-01
2.951305454020218821e-01,3.169362241710214079e-01,3.436480578818423837e-01,3.496084221260383762e-01,3.433604642701759690e-01,3.530862574780734287e-01,3.746334473590183234e-01,3.902272472306362316e-01,4.001346731134974855e-01,4.117401719791914938e-01,4.235150693024681279e-01,4.416116445746767760e-01,4.658365653768062331e-01,4.718425683934595050e-01,4.723494482613952994e-01,4.872252303085254921e-01,4.922871081607449462e-01,4.739136803408451337e-01,4.582847526662126025e-01,4.464735516646413105e-01,4.226205780802748113e-01,4.027121369617233659e-01,3.911710165886980728e-01,3.955632323374326798e-01,3.963447148392733599e-01,3.859692227037861412e-01,3.780817839922795409e-01,3.598001242310875925e-01,3.544346813665306684e-01,3.522575333495338024e-01,3.321739139707340360e-01,3.136553692009583227e-01,2.979633787647728571e-01,2.884188344203544307e-01,2.768086266222457570e-01,2.643368294793898565e-01,2.584125446462825493e-01,2.578492956347754883e-01,2.506795500016005818e-01,2.449815064237967077e-01,2.340487793040476050e-01,2.098099258168799885e-01,1.977730536196339595e-01,1.904080500037858004e-01,1.828078319550499597e-01,1.846432619256048735e-01,1.789525478798581481e-01,1.656207948541047470e-01,1.615018191632432154e-01,1.565320071857185802e-01,1.396588350947039758e-01,1.421678752673070367e-01,1.623237467055079764e-01,1.820873204874308704e-01,1.911285372568831686e-01,1.959773431590666748e-01,2.081699982372552382e-01,2.161043564318000654e-01,2.185101474678314004e-01,2.290625555949577785e-01,2.538235598834572837e-01,2.669419331858142730e-01,2.627773685659385849e-01,2.432291821628290440e-01,2.296918088100732558e-01,2.308626325335002560e-01,2.363390100427859575e-01,2.534251247511339900e-01,2.738147417964902353e-01,2.895645171337049573e-01,3.026920100322963436e-01,3.165778515123090497e-01,3.216539000647370417e-01,3.220091232514956658e-01,3.227363040094226032e-01,3.267229503940782265e-01,3.323869334182556479e-01,3.447551206960570713e-01,3.486714027356395684e-01,3.521333103212322957e-01,3.536527865389085812e-01,3.471499158498750903e-01,3.458720333893252619e-01,3.324693998192080890e-01,3.169552291760281970e-01,3.183056983995086187e-01,3.169729727628650684e-01,3.240361794790706518e-01,3.316378997333701006e-01,3.427442818120333690e-01,3.513283207096287719e-01,3.536551509624893397e-01,3.561938315201336192e-01,3.735758881041498225e-01,3.970873461593499854e-01,4.099375968148629146e-01,4.005291956769762574e-01,3.896002943385100670e-01,3.736513737958190862e-01,3.560076784239384895e-01,3.426841071908859337e-01,3.325490100381150449e-01,3.438566372460318266e-01,3.480665260193101518e-01,3.343722920130904885e-01,3.160072591642043571e-01,3.013452540038878968e-01,2.723975148338522168e-01,2.510672570824253325e-01,2.400327859736194058e-01,2.328003718003578137e-01,2.341430294643857546e-01,2.429614975272637312e-01,2.612534434815084738e-01,2.804173611527284171e-01,2.940825775623537863e-01,3.041734137376392311e-01,3.076871075149640311e-01,3.053457369509824937e-01
2.922933077119614365e-01,3.058893045350017381e-01,3.260802512737028813e-01,3.286495641065640405e-01,3.199411232096094904e-01,3.336509979864417108e-01,3.624745661073624503e-01,3.910250745346514623e-01,4.016125247521746822e-01,4.143855844910672159e-01,4.345400886008535246e-01,4.506050881294715316e-01,4.713174935754754769e-01,4.782751837027676145e-01,4.782384996641232955e-01,4.923983745670520440e-01,4.992895504582275934e-01,4.803812568934669458e-01,4.659515264778381072e-01,4.579958865474831331e-01,4.312706911730444514e-01,4.063898815213413118e-01,3.961508533782230890e-01,4.034623739046658830e-01,3.998851419012071085e-01,3.848878012576626428e-01,3.763568021129792274e-01,3.542989677980317720e-01,3.448453722920528652e-01,3.427327566544049464e-01,3.284738811885261622e-01,3.173676290719733006e-01,3.052765361759124940e-01,2.912431592075131470e-01,2.707904858502663825e-01,2.531420498634194272e-01,2.502045152848560994e-01,2.502762320222836068e-01,2.376409533646995087e-01,2.315148160520636988e-01,2.236387473031856976e-01,1.981201984345929978e-01,1.884061782366439342e-01,1.790239445103604665e-01,1.692270918648335343e-01,1.740844470773188213e-01,1.687007894611188552e-01,1.532326690675378522e-01,1.532339780095354487e-01,1.602062969893656708e-01,1.515988143541830979e-01,1.469763110356711588e-01,1.607033923800870456e-01,1.790239445103604665e-01,1.941211877643657935e-01,2.119675978903678704e-01,2.251501566481314276e-01,2.358589370082399550e-01,2.344760176099806026e-01,2.348724140832469387e-01,2.515014822962480801e-01,2.640318088801007490e-01,2.706561710664298626e-01,2.538367543084622535e-01,2.416341004432265849e-01,2.482088110921837620e-01,2.493585482669501141e-01,2.549484303285242670e-01,2.731974910069438489e-01,2.868530761471231871e-01,2.921792350519158421e-01,3.074504382871884878e-01,3.275000545935628504e-01,3.286495641065640405e-01,3.219862966518288183e-01,3.324089360452714415e-01,3.494243173068177222e-01,3.608040501554854451e-01,3.544395306073890306e-01,3.549542147930512814e-01,3.593243604761954813e-01,3.470528887138708551e-01,3.429622025998237955e-01,3.286495641065640405e-01,3.095478096387294653e-01,3.048482987097898556e-01,3.000478182038811004e-01,2.996173030168752249e-01,3.048818849303550071e-01,3.177982878488299634e-01,3.253482390397769985e-01,3.259872838041050769e-01,3.367003299935107941e-01,3.660559690056149340e-01,3.885714718122925682e-01,3.911026730246704441e-01,3.882682250398728496e-01,3.848648843627231475e-01,3.706353460346040185e-01,3.549731634483765941e-01,3.469011381165578167e-01,3.363953786432277715e-01,3.307599289252099450e-01,3.286495641065640405e-01,3.213428783375273379e-01,3.126880601595101172e-01,3.043082632776894503e-01,2.831323795520173103e-01,2.615810489878548917e-01,2.472650005468046142e-01,2.337580212843672622e-01,2.286722629350254610e-01,2.365219188456758048e-01,2.538367543084622535e-01,2.693216997211815844e-01,2.853603945848559031e-01,3.022578803929928393e-01,3.053547135231258758e-01,3.054166800683861260e-01
2.847177968486462873e-01,2.947212430412760042e-01,3.045632441151949754e-01,3.053188692418324912e-01,3.016909206015011002e-01,3.185462427428263354e-01,3.487583801662098026e-01,3.795005585344214949e-01,3.987658022113182987e-01,4.184145333057467386e-01,4.388110233149580819e-01,4.556761593530102572e-01,4.718231772007766001e-01,4.795160243381416110e-01,4.810345880558937748e-01,4.880352685206159058e-01,4.908672754213725398e-01,4.850817273511186523e-01,4.794383035874182353e-01,4.684639093859609971e-01,4.387582600983906400e-01,4.177032592255634502e-01,4.089891213531857139e-01,4.112345324831589988e-01,4.014836767926528438e-01,3.773252630414896669e-01,3.605772578500845427e-01,3.404521076245494715e-01,3.311933942103971185e-01,3.272316943275802026e-01,3.204781890318855742e-01,3.170206346359833449e-01,3.087337282804203942e-01,2.908714939078851924e-01,2.685160703624794309e-01,2.474190691753903326e-01,2.363810674987931182e-01,2.323115996423007201e-01,2.259704473339873010e-01,2.208509316783005549e-01,2.050753839430125847e-01,1.790499940176100424e-01,1.692909098026391113e-01,1.635923882709107435e-01,1.540568734537579587e-01,1.561545222539311994e-01,1.585233869363728842e-01,1.544337045934583708e-01,1.544370934384062810e-01,1.617118562642717861e-01,1.623619715345379355e-01,1.589910663224109177e-01,1.635659908213511204e-01,1.735672011310388507e-01,1.937929122286246031e-01,2.251128257762463059e-01,2.374363895376479516e-01,2.426569454902854639e-01,2.460905732159892612e-01,2.490922057269098211e-01,2.602506053435813538e-01,2.730112374317987256e-01,2.803532297839638199e-01,2.658319218009699281e-01,2.544430651128688492e-01,2.558214923778895367e-01,2.538442051394320109e-01,2.515432933072629940e-01,2.630813617453333642e-01,2.759663034372538126e-01,2.829530773550431033e-01,2.958773615345846597e-01,3.266387221037891919e-01,3.367107293385343536e-01,3.296364131355367100e-01,3.345397795601910973e-01,3.513672767266937669e-01,3.619020797649953880e-01,3.587208445254663758e-01,3.614157021855192164e-01,3.623039673336742039e-01,3.455091955275432780e-01,3.404563395082554345e-01,3.256480944779053810e-01,3.000276613118121327e-01,2.864048198626237829e-01,2.816353448071314269e-01,2.811809319239036986e-01,2.833765155651905010e-01,2.958718822635530987e-01,3.065970823324407624e-01,3.079824598441126549e-01,3.191431592180136723e-01,3.456858520051374617e-01,3.625945973218995810e-01,3.641596528648165521e-01,3.681979371696906256e-01,3.695191751656560220e-01,3.561956202264872084e-01,3.463071020379379639e-01,3.444734680154628026e-01,3.286107919048755766e-01,3.110565001681221409e-01,3.074573410100120419e-01,3.044560027631674215e-01,3.007266761680286171e-01,2.978694399986582253e-01,2.895293974776321777e-01,2.714103208045207105e-01,2.514118654828081389e-01,2.329675181942665874e-01,2.289384088169406084e-01,2.417402729741145173e-01,2.573018089190974300e-01,2.638057000126031171e-01,2.698943278995439843e-01,2.901327862455462259e-01,3.011544766129523043e-01,3.027008096347573729e-01
2.660111391233581091e-01,2.759822789113957620e-01,2.861766231149618922e-01,2.929053815725422005e-01,2.976663838084649960e-01,3.136225659920306996e-01,3.363757888688361786e-01,3.591447941825214873e-01,3.912511164161824317e-01,4.216613136913388571e-01,4.369871728644816322e-01,4.550068905657757568e-01,4.712204119567973137e-01,4.833724482497108177e-01,4.919399782818461020e-01,4.974259981494709715e-01,4.933252068855244477e-01,4.813513739142212811e-01,4.755172764067904234e-01,4.635151165185225075e-01,4.365977101176788389e-01,4.198403938769046939e-01,4.109534258739755974e-01,4.028108964543998249e-01,3.883636258991775003e-01,3.641337229591999902e-01,3.415086537414238621e-01,3.225186970415510057e-01,3.116686432777089899e-01,3.021780959589470128e-01,3.005535539922406518e-01,3.038680606978599874e-01,2.966192365468887648e-01,2.695034159022997589e-01,2.501460076821896417e-01,2.388831488251952351e-01,2.191723627006654795e-01,2.049910964742428787e-01,2.075959201295397016e-01,2.087261865657876747e-01,1.882326910325984315e-01,1.629719506692602071e-01,1.539937120236866408e-01,1.549219365640071289e-01,1.493285250661613994e-01,1.514989536665274084e-01,1.627353508036427643e-01,1.710775252209496833e-01,1.670623915829866080e-01,1.674092192329716400e-01,1.750958018812041883e-01,1.812089144967911347e-01,1.926350663573305477e-01,1.951837564514591894e-01,2.060060410244002327e-01,2.273816968174666719e-01,2.299805321875915687e-01,2.339260433613776780e-01,2.539912864075201115e-01,2.677725790874251333e-01,2.787339979260927136e-01,2.959462353287471426e-01,2.954219673974665117e-01,2.798982131218201719e-01,2.693083505042806469e-01,2.578420878542388439e-01,2.499278316730571825e-01,2.559326601156781122e-01,2.689476514410497066e-01,2.839824235485813309e-01,2.977132196721968271e-01,3.042129956548303427e-01,3.209825830005280656e-01,3.306721863610134204e-01,3.273264907856331396e-01,3.270218521873972106e-01,3.378634132169228699e-01,3.532374819187224513e-01,3.611727520049994866e-01,3.667285633292696745e-01,3.619743837045751311e-01,3.454335787811399494e-01,3.406510369360656321e-01,3.248335890260098946e-01,2.966553015169571261e-01,2.846325126241662229e-01,2.833639455127601736e-01,2.798505340496023064e-01,2.758337201048736698e-01,2.834180414332391207e-01,2.874801537327211221e-01,2.851188612933138189e-01,2.926775622998547544e-01,3.110834665457907211e-01,3.232299992965749214e-01,3.360542046314611841e-01,3.503109953854309233e-01,3.523941412712094934e-01,3.370733535693955507e-01,3.304028385046299809e-01,3.270974947324498672e-01,3.056253612693491384e-01,2.900114049582701581e-01,2.946474647880933384e-01,2.922792641945680114e-01,2.831118003767935098e-01,2.851707781331401237e-01,2.833996899940153802e-01,2.632765814826404926e-01,2.391336288167603408e-01,2.261360873357095291e-01,2.281636511630253661e-01,2.410527550370378247e-01,2.468027217911784033e-01,2.512826291857226946e-01,2.682525163396062284e-01,2.921737934322026220e-01,3.076943006988964724e-01,3.049083844429922308e-01
2.517566102313156251e-01,2.649330552749477041e-01,2.838594728434709058e-01,2.949581189977020790e-01,2.937220310279793911e-01,2.939452174063765799e-01,3.114622052014139331e-01,3.401622901240500263e-01,3.795231391417038802e-01,4.169742596628587816e-01,4.419653260658338856e-01,4.629745227945984976e-01,4.782124531554009517e-01,4.880115998439827907e-01,4.950547913343868456e-01,5.000000000000000000e-01,4.952865107292020452e-01,4.717288538311133483e-01,4.593159373529713818e-01,4.470799683792925361e-01,4.214198424070767501e-01,4.035469174363453537e-01,3.905662482719566841e-01,3.769341316991502433e-01,3.649972363966338396e-01,3.522061655230695476e-01,3.326789089531411725e-01,3.180692134962934681e-01,3.104549911938980777e-01,2.996139985267214922e-01,2.921151390714301632e-01,2.914046198280438316e-01,2.793129250483626924e-01,2.485187293613747295e-01,2.283137712404398889e-01,2.219507611396331626e-01,2.091099125076736620e-01,2.028872778365606866e-01,2.047428506683401372e-01,2.002450435372393756e-01,1.776830162610534281e-01,1.572526200375035377e-01,1.547679385422511822e-01,1.586237539790976703e-01,1.534199066122206301e-01,1.529663147596926065e-01,1.631282216878045532e-01,1.721258006076742397e-01,1.737735911743222561e-01,1.856397017156181384e-01,2.091551130991242402e-01,2.213129565209044081e-01,2.296233034387274718e-01,2.261760317918149743e-01,2.262326501526017997e-01,2.312214381116527162e-01,2.289962242690019578e-01,2.363868149399952767e-01,2.622168433486713468e-01,2.791247645230545138e-01,2.901787087465702020e-01,3.079577638041611776e-01,3.045394454269474971e-01,2.879678143848255489e-01,2.811329174692445143e-01,2.734360941150514313e-01,2.614589136558457261e-01,2.686283202857162045e-01,2.857980890381017214e-01,3.063076907359592593e-01,3.252642027683823045e-01,3.290273826103612409e-01,3.276841596390874800e-01,3.267315223347742048e-01,3.251593399715556609e-01,3.310363320332733172e-01,3.381157873724783269e-01,3.413770688620336169e-01,3.449939780566428915e-01,3.540464515236010357e-01,3.562023088657820247e-01,3.441188633173763445e-01,3.357969248853658883e-01,3.167752220422761500e-01,2.916431717914605981e-01,2.854260082444372570e-01,2.820397293569246733e-01,2.700392170745027354e-01,2.600148365226130354e-01,2.638867620844466688e-01,2.633892410160114106e-01,2.575810634568237445e-01,2.707147122752316393e-01,2.903233097234595439e-01,2.979408760060464068e-01,3.070427933765101369e-01,3.232831463246271797e-01,3.339725061856923527e-01,3.243675024802639695e-01,3.172332182221135333e-01,3.117224040420505937e-01,2.936954032010073434e-01,2.790373076675841668e-01,2.815837628971385453e-01,2.761710388026929475e-01,2.638408282682256911e-01,2.655489903333782542e-01,2.600995701496034429e-01,2.400570430405004063e-01,2.262042871967342994e-01,2.296636253698073338e-01,2.325018922901936902e-01,2.320383747467916757e-01,2.291744241394771675e-01,2.374241098331745514e-01,2.658868200254974612e-01,2.906259342166160331e-01,2.993042196607584859e-01,2.914405867660735394e-01
2.334840242398098509e-01,2.523766288312184747e-01,2.783089827310730180e-01,2.900534762188177185e-01,2.891159501338939064e-01,2.829324456773049112e-01,2.936461359277280359e-01,3.330660882931744116e-01,3.719404227608915092e-01,4.001244898887380552e-01,4.309934798204539397e-01,4.582259168096789459e-01,4.734982600793448682e-01,4.789106121301107133e-01,4.862835271054495867e-01,4.904808551047591947e-01,4.815171696130552959e-01,4.559931274425866876e-01,4.386372893264643968e-01,4.211747873735972036e-01,4.040475160120810538e-01,3.945816500800903848e-01,3.810546723383431145e-01,3.566303146956766867e-01,3.430950997026188665e-01,3.368206550778599651e-01,3.146372603631807374e-01,3.005421014286734360e-01,3.020794559547517188e-01,2.963424577742824750e-01,2.847231118230162394e-01,2.801856354214028455e-01,2.672911934900184527e-01,2.363026407363482684e-01,2.072708066821970507e-01,1.978910710685477248e-01,2.021449357329213048e-01,2.110207202476696298e-01,2.003086290608970532e-01,1.760311323652876125e-01,1.537405910651242769e-01,1.503002778118048555e-01,1.597594548781967327e-01,1.583527758291198018e-01,1.508783712303543301e-01,1.483083695282952086e-01,1.519161848121674818e-01,1.671374173366467208e-01,1.851254611988332188e-01,2.082407772843012095e-01,2.363231610725473053e-01,2.500116220652194299e-01,2.456200745920240347e-01,2.383411241814491488e-01,2.345001966302897589e-01,2.309162570628690847e-01,2.336414285884931830e-01,2.480158874346670150e-01,2.701843225960295913e-01,2.888282300183241946e-01,3.105082342879735280e-01,3.268746378525915763e-01,3.199595728647438020e-01,3.023387799043504853e-01,2.932293241232915570e-01,2.809098985557640926e-01,2.689075268470068614e-01,2.758210344111292067e-01,2.950622618085387283e-01,3.208861899681678675e-01,3.449252182065149497e-01,3.464740259750722640e-01,3.429157546210477303e-01,3.395086274829248740e-01,3.343327549040797098e-01,3.361860809903279845e-01,3.392557029561837911e-01,3.343190906720922562e-01,3.398199052730443981e-01,3.482443579195764749e-01,3.443146062693961396e-01,3.372476822846475764e-01,3.258188349178610665e-01,3.072565808996091108e-01,2.915425140613229771e-01,2.874948843088809269e-01,2.767777252716424607e-01,2.628008670620077258e-01,2.534368689073298597e-01,2.537663796665596827e-01,2.493701653534828033e-01,2.423719105841335708e-01,2.504016433301499145e-01,2.659015334025577326e-01,2.775244115057428074e-01,2.918228919718148240e-01,3.034991108192260922e-01,3.167443709311478783e-01,3.131570569739435816e-01,3.021501438013092788e-01,2.983809013898896523e-01,2.955538718180221736e-01,2.816859210224083032e-01,2.762210614785289287e-01,2.715163756573590881e-01,2.562530046034856568e-01,2.459854769300710842e-01,2.286893122213698171e-01,2.133981395585557439e-01,2.136622086491997419e-01,2.206920346288191170e-01,2.131336278174021381e-01,2.112835134366915224e-01,2.175570624211699278e-01,2.264750200332396046e-01,2.480567416326172059e-01,2.714901707924536334e-01,2.731973588454419954e-01,2.661949762921999030e-01
2.281351841975127470e-01,2.465824745493653825e-01,2.594235799090025552e-01,2.636033290707446852e-01,2.693879918399795792e-01,2.743282032619566158e-01,2.854211499514212602e-01,3.238691105942618220e-01,3.584424083027925589e-01,3.826813971197171038e-01,4.173054373769216618e-01,4.449344694211216367e-01,4.528240145697156604e-01,4.524852244436687876e-01,4.594923942304892650e-01,4.620197982890328348e-01,4.504865184423645363e-01,4.394834687306194421e-01,4.272874324452409778e-01,4.041353011214185997e-01,3.880620274680917081e-01,3.872609035945607792e-01,3.830336681715589275e-01,3.576044663621079089e-01,3.377916241753859961e-01,3.221060829489252875e-01,2.949477876853009439e-01,2.785897415853543224e-01,2.835933065942010112e-01,2.814768686829812183e-01,2.717911894328413624e-01,2.678514623049199628e-01,2.517325168953362668e-01,2.195952815432671568e-01,1.929272760319315771e-01,1.924824701753402034e-01,2.031532261551348695e-01,2.047650986088285219e-01,1.824400509362738843e-01,1.570370193672252779e-01,1.490327610901432398e-01,1.560129674412464029e-01,1.661805024352313587e-01,1.598356242588251930e-01,1.554169506373785370e-01,1.595636757175461495e-01,1.610274403884731365e-01,1.706256911842872204e-01,1.913059120231876964e-01,2.164281886593779625e-01,2.399158827887375722e-01,2.515745784693509957e-01,2.510100153108557053e-01,2.479423268858761131e-01,2.449095048828587584e-01,2.435691860700661682e-01,2.527200588669778480e-01,2.716619144377819262e-01,2.905202606859191294e-01,3.030510525506755481e-01,3.170553871139110136e-01,3.275155414774951201e-01,3.162997696816076121e-01,2.976723853889934324e-01,2.883871971293334169e-01,2.776658668578453337e-01,2.710231989456886592e-01,2.864386695009768502e-01,3.096344455766520953e-01,3.339424414807607433e-01,3.525386440321882087e-01,3.506594624943201177e-01,3.454142836544801809e-01,3.409732213314934923e-01,3.316807497057803755e-01,3.274540945260845937e-01,3.309433021037876954e-01,3.342769908972480497e-01,3.460613789552230424e-01,3.539834910514297883e-01,3.456308986756002066e-01,3.360896266295997914e-01,3.220039479066575394e-01,3.040022532775680797e-01,2.853392487445625680e-01,2.676889507288849890e-01,2.523670147608719216e-01,2.406454775449524686e-01,2.334434934301919951e-01,2.357507750394023383e-01,2.380306460363069143e-01,2.350197825310367805e-01,2.435988201185971258e-01,2.578813144742418961e-01,2.673277696382586610e-01,2.759806927470698223e-01,2.849141096339908863e-01,2.973312023250691549e-01,2.963776208807120116e-01,2.887555466236105262e-01,2.947752332778142970e-01,3.002333231655877621e-01,2.866103859898321837e-01,2.770696401570717504e-01,2.692151288387806263e-01,2.437999950016927486e-01,2.235592425419155316e-01,2.105429915522295525e-01,2.028489958092094536e-01,2.027476175273221215e-01,1.982775797002742924e-01,1.833995411765434735e-01,1.806855422765109576e-01,1.917830422012785085e-01,2.015804114987038431e-01,2.210740393029260453e-01,2.464348611134148659e-01,2.547925499105829772e-01,2.534177851485514554e-01
2.315158728914704922e-01,2.432103517513131419e-01,2.440168039511466103e-01,2.416930910916561537e-01,2.487290725384841417e-01,2.632097150044390155e-01,2.788985000715971663e-01,3.169471021488811657e-01,3.533131339685405825e-01,3.822602679452608010e-01,4.168510953268275698e-01,4.386293818141406842e-01,4.393178554327623053e-01,4.334891029981256527e-01,4.321633047514352177e-01,4.299000544212097097e-01,4.211098254693672605e-01,4.208362440885743960e-01,4.114289531412487766e-01,3.883478272815658605e-01,3.697618021841473368e-01,3.682084897224825459e-01,3.672367052942873134e-01,3.481242013892317244e-01,3.292795888483920907e-01,3.119107115517686379e-01,2.852165852191539397e-01,2.647528263633330825e-01,2.665395584413254859e-01,2.644326578834160224e-01,2.529084772656273183e-01,2.475582628459015166e-01,2.287294961070453769e-01,2.009779655130100595e-01,1.841722040197362742e-01,1.897143355253350094e-01,1.952476916147064812e-01,1.910199398792621073e-01,1.764850985245348669e-01,1.655235004531455667e-01,1.666179785051736806e-01,1.730513186660063985e-01,1.789869422317983960e-01,1.753012700188059103e-01,1.734692334758537735e-01,1.757965615408096094e-01,1.773202705049755912e-01,1.790915143412120936e-01,1.948308733606076149e-01,2.179344124758082479e-01,2.405459546017854333e-01,2.526325675001563908e-01,2.597945911902395655e-01,2.565650719114809797e-01,2.532134227320078645e-01,2.563798312727780249e-01,2.654271815579566374e-01,2.804463305465831335e-01,2.996526191047692023e-01,3.102191270423944047e-01,3.095712941039542310e-01,3.082361836763751195e-01,2.940615651848099699e-01,2.777898384200357951e-01,2.687654396542996649e-01,2.668522398816420838e-01,2.735193486194802404e-01,3.017179906263748879e-01,3.240938254294798981e-01,3.405998234488895604e-01,3.522408810003027635e-01,3.512963403984084021e-01,3.429761454119633068e-01,3.328168326059327553e-01,3.245362057321383165e-01,3.257981923775336575e-01,3.284203118773190710e-01,3.360346619282894021e-01,3.503383763519202776e-01,3.580336635549585256e-01,3.508605011848749400e-01,3.368717819330584451e-01,3.165601106411194410e-01,2.947709407446519880e-01,2.696530172910803214e-01,2.385995180218483669e-01,2.210200590237612062e-01,2.113220543557517983e-01,2.067151918078523609e-01,2.123402781631733849e-01,2.217874498054689392e-01,2.238389964192886716e-01,2.445879937416568506e-01,2.638320915782602638e-01,2.658344505777882061e-01,2.613238373592460806e-01,2.708029400350787097e-01,2.889660147204956564e-01,2.944871492655066758e-01,2.939038155528879148e-01,3.009159384540758819e-01,3.026740840444825942e-01,2.958990192743936043e-01,2.858991681461784395e-01,2.670050900898067736e-01,2.330694542587937734e-01,2.094644502197934299e-01,2.010674626682410204e-01,1.939137200617129797e-01,1.892018991035716857e-01,1.786828619253861827e-01,1.612611345114818018e-01,1.476731094710846126e-01,1.526011588666378593e-01,1.653595577309845688e-01,1.934611945533573074e-01,2.235280720027738588e-01,2.383994418019566852e-01,2.373502659518489100e-01
2.231120769292621875e-01,2.246888672367614304e-01,2.340532542381867087e-01,2.353027131499886848e-01,2.398634237246674850e-01,2.606486423506955696e-01,2.807673306934851953e-01,3.182075616952792507e-01,3.566728318739969539e-01,3.863169762763478121e-01,4.105324294833568866e-01,4.269499304412290863e-01,4.372448316696789239e-01,4.331273756097845373e-01,4.202860680334317145e-01,4.142377912707791432e-01,4.077146933091508885e-01,3.953976848940225497e-01,3.773275555004170223e-01,3.653923935729405659e-01,3.559225329237746260e-01,3.458640351291210058e-01,3.377014746424677472e-01,3.250006547425635106e-01,3.074486590290245180e-01,2.889768863618450978e-01,2.680183184640237970e-01,2.489797887913641761e-01,2.487977594055909847e-01,2.493471592947903992e-01,2.363210446780864005e-01,2.252964635041317110e-01,2.104410725736499677e-01,1.974704431573217622e-01,1.888512144423598049e-01,1.831145545862831181e-01,1.772269355177768235e-01,1.728891035481347760e-01,1.792584560432057827e-01,1.843609156234299606e-01,1.787636958828567324e-01,1.794737416983974709e-01,1.839047819250310689e-01,1.876278379650309081e-01,1.879981110428107782e-01,1.848721599891814393e-01,1.876344827013610994e-01,1.958790620729226051e-01,2.117998591034602196e-01,2.267864921052928362e-01,2.434381361731936255e-01,2.586053531150930840e-01,2.637972271930335566e-01,2.524873713439009237e-01,2.507440626642185588e-01,2.602946676827821992e-01,2.622634329937147957e-01,2.679867533639601063e-01,2.883274130592849982e-01,3.075117114371719862e-01,3.076603029446136617e-01,2.958141738532560905e-01,2.840956475971342376e-01,2.744492306098682555e-01,2.592736033082869707e-01,2.588624579282415850e-01,2.816184254192494740e-01,3.106577004601490666e-01,3.189239173173167852e-01,3.270370819900519921e-01,3.439307531446951227e-01,3.530741846154025199e-01,3.563953800734686594e-01,3.440755229443248076e-01,3.360921032999354408e-01,3.404363451024164933e-01,3.361055425858051060e-01,3.387944573346264310e-01,3.538040981065749824e-01,3.560751228824066139e-01,3.412645804144424644e-01,3.247072462511204072e-01,2.965624496462415105e-01,2.679384322674602248e-01,2.476584091291313960e-01,2.259391130639439582e-01,2.094622944484467730e-01,2.059696873329345257e-01,2.074569111230447349e-01,2.129407973971092771e-01,2.190496998541686668e-01,2.193102580654643086e-01,2.352007288261459828e-01,2.518254707866975362e-01,2.576055685528245709e-01,2.627060547626788867e-01,2.751474325823268785e-01,2.908667976484913265e-01,2.995096787462026011e-01,3.060698447276879453e-01,3.070965584406266657e-01,3.006416094216363133e-01,3.030723386994125801e-01,2.905790585233904988e-01,2.616013194845024925e-01,2.364579685200644266e-01,2.150937363236607447e-01,1.928894178294307815e-01,1.726860901293864325e-01,1.640338317884033614e-01,1.534757047909474925e-01,1.356842159724749863e-01,1.249822818582125433e-01,1.293761902614215531e-01,1.375593283391710331e-01,1.616995974929129609e-01,1.961826442843595808e-01,2.182860109523358794e-01,2.170905626444269432e-01
2.119868547716615148e-01,2.114775898864862669e-01,2.293499917556568735e-01,2.367386107535599249e-01,2.442891376617340182e-01,2.699742249586967180e-01,2.909921474016854970e-01,3.168593632055478060e-01,3.454244384215189312e-01,3.693133436970761907e-01,3.896782472205015391e-01,4.080183787151851482e-01,4.299342702193401644e-01,4.319500798199347735e-01,4.202536892575463034e-01,4.125294320948935112e-01,3.981058632566797373e-01,3.687468541262788890e-01,3.457409239745161122e-01,3.419506515904212063e-01,3.425312737292129373e-01,3.309690373880144754e-01,3.208355153106763891e-01,3.068137955128953931e-01,2.818988173605856962e-01,2.533882604048243170e-01,2.363322395946162724e-01,2.266767967009476470e-01,2.302403763533758529e-01,2.334962736195550781e-01,2.237130763801619127e-01,2.115691044847796132e-01,2.013911589437260008e-01,1.970532323790364082e-01,1.952395293972966073e-01,1.889421717671972145e-01,1.794083507218945661e-01,1.667825026021604040e-01,1.770427892849349150e-01,1.914708799022036834e-01,1.914818959254677710e-01,1.934770122936520231e-01,1.940874336828520008e-01,1.952112346154914468e-01,2.008173091766874696e-01,2.104145898640803480e-01,2.157337655101344009e-01,2.239177828918485491e-01,2.360046627157184884e-01,2.407348753951850384e-01,2.433862469424481756e-01,2.560111694790616066e-01,2.623444038650699639e-01,2.536599278766079602e-01,2.557183062669655116e-01,2.671436906176873349e-01,2.644649834778751152e-01,2.665268228475619616e-01,2.815273745177322984e-01,2.961534755676507591e-01,2.977691997992926165e-01,2.908372600054394685e-01,2.863659066735797509e-01,2.794808603378114986e-01,2.640447611598882860e-01,2.649173185514639983e-01,2.884988665829602561e-01,3.072162245703302097e-01,3.066787647033879516e-01,3.139336653414923628e-01,3.362927072606187173e-01,3.506200215644844631e-01,3.621038893033510231e-01,3.555361551523022468e-01,3.476105388527133688e-01,3.442108298446408532e-01,3.344409720910790917e-01,3.333754248268677167e-01,3.483360010585086486e-01,3.484183566836817625e-01,3.280298714974889118e-01,3.095289585204029081e-01,2.777631915835326315e-01,2.461892589459567238e-01,2.306621030268137806e-01,2.225480111868302080e-01,2.119227116350919926e-01,2.155341966636795670e-01,2.210028420461962184e-01,2.270189764074302674e-01,2.313719399638164975e-01,2.279710979650608482e-01,2.282585023866321450e-01,2.363588437728264824e-01,2.490344995796522076e-01,2.704096129221708611e-01,2.849140630153789155e-01,2.876275319115804696e-01,2.870570622202120448e-01,2.936092004088287077e-01,2.986599274737869458e-01,2.928271261221810362e-01,2.914596406527316663e-01,2.761361418296986447e-01,2.511538540960700505e-01,2.366524885255845145e-01,2.169503990352224798e-01,1.852767043095573940e-01,1.545572862339576747e-01,1.386806616536324366e-01,1.254480007873494118e-01,1.097432223680379904e-01,1.132593535519647310e-01,1.217835047393784481e-01,1.211756499763309569e-01,1.324551010988598843e-01,1.666588573702535159e-01,1.999660632798901938e-01,2.092043595524409050e-01
2.165485244224443495e-01,2.203302368599522054e-01,2.414180742083863740e-01,2.512364507349408860e-01,2.581903578523949694e-01,2.851325762173842482e-01,3.082430984498835125e-01,3.208251125710938068e-01,3.368928397411185549e-01,3.585192957458273044e-01,3.814098043246132996e-01,3.995663612302112200e-01,4.207286766767671105e-01,4.282482180492717116e-01,4.186694103828951241e-01,4.020180092522754878e-01,3.843675855247584150e-01,3.517953283689925215e-01,3.293179093474133401e-01,3.239189947720856333e-01,3.268090787322601165e-01,3.202924745622330316e-01,2.993102017791479663e-01,2.742529691955183369e-01,2.468202163305276420e-01,2.228954868581517479e-01,2.161886865588627527e-01,2.110251014919769796e-01,2.085145579822905715e-01,2.073845237338865499e-01,2.024650471842450450e-01,1.960834552668022368e-01,1.921666930102559068e-01,1.928140204988427475e-01,2.000080956161598700e-01,1.977605374841176766e-01,1.864086386058541600e-01,1.817408373851967796e-01,1.976567736758070015e-01,2.109112515998738391e-01,2.168930119765223596e-01,2.258196263932660264e-01,2.204034382643879630e-01,2.145716318580608573e-01,2.225055764821526061e-01,2.391958734895646699e-01,2.446671257803353650e-01,2.475062871670504761e-01,2.589222220835431520e-01,2.594519842219153993e-01,2.480921170121438979e-01,2.550276063833194495e-01,2.551102652557741823e-01,2.505054152571144499e-01,2.555198642550193799e-01,2.638133422401314210e-01,2.631325739312617706e-01,2.675546362845043769e-01,2.671254468425637851e-01,2.696942322175133189e-01,2.783517397915712954e-01,2.776776532197263170e-01,2.816242129162492835e-01,2.778848229366641109e-01,2.610232790210753606e-01,2.586606658718654805e-01,2.789201707390187579e-01,2.868343883070904043e-01,2.851570239453359301e-01,2.981537430590793236e-01,3.191335820352095287e-01,3.288389664747511376e-01,3.389324630791727411e-01,3.475671555950649583e-01,3.499668678809237932e-01,3.381496890607379457e-01,3.231905196687653303e-01,3.194239209399902801e-01,3.344383994678721828e-01,3.378197727648449278e-01,3.197235476979857771e-01,3.004579334483847841e-01,2.704983916189634963e-01,2.461721704400784694e-01,2.325545971203442364e-01,2.191815458883074053e-01,2.088357054530584900e-01,2.212943079446055283e-01,2.270546591077095000e-01,2.254181869629673929e-01,2.340953494869521256e-01,2.427645854890820576e-01,2.423065232284937476e-01,2.383531988545515568e-01,2.486806181489627232e-01,2.770475995109937251e-01,2.916725725206278375e-01,2.913614197634360470e-01,2.813330833054970559e-01,2.802073388746080251e-01,2.857254760239139046e-01,2.782415804641460433e-01,2.699847571441338911e-01,2.569892247894756676e-01,2.433810749921692385e-01,2.315246960295415379e-01,2.067925280116031661e-01,1.827413567563633823e-01,1.510014262615817504e-01,1.245780495119639675e-01,1.104163788306834759e-01,9.796687579432002135e-02,1.099293744458653826e-01,1.198791914698954658e-01,1.110433522881803386e-01,1.078069662972129944e-01,1.349912161901594687e-01,1.655363332444519942e-01,1.894844920770428764e-01
2.158704109982643726e-01,2.236537539701541344e-01,2.445162691967432689e-01,2.538367543084622535e-01,2.593704464591867764e-01,2.844443924941116308e-01,3.075451082077461651e-01,3.269693713981487448e-01,3.441381534653493723e-01,3.584475063648345783e-01,3.690314369903076042e-01,3.821583620923098001e-01,3.964685237455058964e-01,4.034623739046658830e-01,3.962457172748505285e-01,3.810317758107583663e-01,3.675181314446361314e-01,3.475157886738164947e-01,3.306718514311799972e-01,3.183429801634384826e-01,3.116137709084066953e-01,3.059133348453333401e-01,2.824453842638934842e-01,2.538367543084622535e-01,2.255573283572681331e-01,2.040657067302455441e-01,2.028288266967276654e-01,2.031966665545285322e-01,2.002345484656486152e-01,1.943190186531258967e-01,1.858989722574867220e-01,1.836383144652150579e-01,1.783943033537132572e-01,1.790239445103604665e-01,1.916738201682029186e-01,1.944699980066062484e-01,1.867900277332402714e-01,1.948249564177532978e-01,2.171375628048203277e-01,2.324244044628020756e-01,2.469728013104728892e-01,2.610120839913935287e-01,2.595118717128651054e-01,2.538367543084622535e-01,2.542517308445091939e-01,2.563326471272802110e-01,2.588626360294435380e-01,2.574782178201796556e-01,2.673030599634946269e-01,2.687418660253220182e-01,2.565075499756317434e-01,2.579315534966458712e-01,2.564640028739296751e-01,2.538367543084622535e-01,2.580437893041743758e-01,2.642144929631766725e-01,2.656156019933415546e-01,2.651400342176628566e-01,2.538367543084622535e-01,2.507553687525597153e-01,2.614440975367960385e-01,2.601346422818485160e-01,2.596727600107277545e-01,2.538367543084622535e-01,2.390965027499422912e-01,2.407101000922780565e-01,2.610095439559541597e-01,2.733997454022724649e-01,2.770696401570717504e-01,2.897320927130387913e-01,3.009012728271472925e-01,3.053867312027845338e-01,3.126913970111274699e-01,3.286495641065640405e-01,3.382156691311525853e-01,3.261670791173678641e-01,3.102566850102848051e-01,3.059598819452358787e-01,3.209052694271714024e-01,3.304179954374156236e-01,3.240592063577257265e-01,3.080666068912866762e-01,2.762220941034139732e-01,2.538367543084622535e-01,2.382000263895741876e-01,2.138889757217112275e-01,1.986839926122951627e-01,2.070705835910473525e-01,2.100011232279310469e-01,2.060757459197879171e-01,2.211584984232354278e-01,2.424740184699283596e-01,2.570910651840115912e-01,2.538367543084622535e-01,2.565868346563188740e-01,2.746802391840031388e-01,2.864202347819026495e-01,2.940515789010556547e-01,2.842060761130979496e-01,2.767639216364270460e-01,2.774342619728245585e-01,2.667277423890915822e-01,2.616185115686339713e-01,2.538367543084622535e-01,2.445665946672529734e-01,2.313431366770548059e-01,2.044028653746022550e-01,1.826587062571544406e-01,1.500690422548165703e-01,1.223055895165354318e-01,1.146942646966550156e-01,1.036330277154726837e-01,1.025680873064964138e-01,1.042111347122586518e-01,9.817417156255328625e-02,1.001925402081182970e-01,1.207746766189998489e-01,1.378540030011668471e-01,1.635353551515751347e-01
2.151356102471713438e-01,2.285843203181446570e-01,2.495966942410958733e-01,2.595804010724286348e-01,2.634643225535930888e-01,2.818635438178326846e-01,3.049531397248619879e-01,3.272139114770094559e-01,3.436137369796751218e-01,3.512899083877832340e-01,3.494217077960683482e-01,3.568661044921915271e-01,3.721337976684676585e-01,3.791777748861565600e-01,3.745014438173363547e-01,3.668216855907634466e-01,3.573397269591891412e-01,3.445095802406228924e-01,3.276711992123580441e-01,3.094320151168570843e-01,2.942161372265135189e-01,2.831156446018477379e-01,2.682430292257708682e-01,2.466740923281120768e-01,2.199801595985192704e-01,1.942878407591061007e-01,1.860731914416310084e-01,1.861197354864302933e-01,1.907696576773418584e-01,1.876281769683352807e-01,1.763206859953913019e-01,1.762287061161942614e-01,1.726671989552622244e-01,1.754791722995980852e-01,1.872742584237994112e-01,1.903539649458960148e-01,1.927486987713459277e-01,2.108988401865064533e-01,2.338979780517692064e-01,2.538559181929799236e-01,2.784323388455505754e-01,2.910561633554398786e-01,2.891516029620528339e-01,2.873259692365173756e-01,2.836204856975745869e-01,2.717085831760530090e-01,2.711483893809080170e-01,2.697253345260166579e-01,2.773034130338520309e-01,2.764295249751003158e-01,2.629950854043737740e-01,2.595302456127550061e-01,2.562628829968358057e-01,2.548630074928800449e-01,2.602268844720657670e-01,2.634268414158908445e-01,2.610770832357736659e-01,2.578717974882862585e-01,2.493707594013292450e-01,2.433979751442161832e-01,2.444764469447662514e-01,2.420645515862170083e-01,2.372519552198885107e-01,2.318586335201709703e-01,2.219984338753406838e-01,2.258816601507968591e-01,2.465340628039929538e-01,2.650828358964499309e-01,2.701667709149351282e-01,2.755334064578396913e-01,2.807725953152281351e-01,2.897981782163381870e-01,3.025183932692442346e-01,3.140117116870115854e-01,3.184332120709914560e-01,3.117979343403482484e-01,3.039201483971621376e-01,3.026360871600977109e-01,3.093719796231296781e-01,3.149157977437163636e-01,3.162176159195502212e-01,3.073557703697744059e-01,2.841388765154945761e-01,2.625747715464425980e-01,2.406321590912436081e-01,2.123714193959546359e-01,1.973460945727647520e-01,1.952641218466188711e-01,1.981408436905676973e-01,2.009803077588045717e-01,2.146847660639490118e-01,2.382645026455455783e-01,2.608797719974392249e-01,2.682229859382805337e-01,2.712200446768154860e-01,2.782536794083461662e-01,2.860483750871890551e-01,2.897902783983484221e-01,2.825672943103289536e-01,2.761354167518700886e-01,2.737919950821148252e-01,2.655858656554291319e-01,2.570264590295777696e-01,2.450560011552580797e-01,2.375364077328469548e-01,2.315175298889301236e-01,2.094144994414268712e-01,1.833345018763656298e-01,1.493457965829763090e-01,1.239827072069937253e-01,1.187989103693331272e-01,1.092817130458128283e-01,9.350474140612499707e-02,8.528445349964362820e-02,8.289629018283109496e-02,9.200290471790452396e-02,1.092988725421766977e-01,1.231629116741618235e-01,1.430575937393742392e-01
2.211230675992431338e-01,2.427717154210627948e-01,2.607999654598630590e-01,2.703979356387897215e-01,2.736553538937597230e-01,2.877326634019055085e-01,3.154217613069930648e-01,3.308389110375271613e-01,3.390096575035042581e-01,3.477331128749132083e-01,3.495530971488531313e-01,3.520673022563129417e-01,3.602936496771317887e-01,3.614583799406301257e-01,3.545305826404259730e-01,3.468097267128618100e-01,3.398904266730530255e-01,3.330426002070865921e-01,3.126720165678817387e-01,2.913743238404840064e-01,2.779847801712388433e-01,2.596064244981490243e-01,2.435095191123074765e-01,2.273090268312615569e-01,2.115784110080696778e-01,1.887278161080531147e-01,1.638866829685887705e-01,1.530693545651184151e-01,1.666857526884844842e-01,1.721736345849400329e-01,1.638048691150515435e-01,1.665969179814662804e-01,1.692805094392478282e-01,1.765295783096438309e-01,1.894120749289163741e-01,2.003222272121336078e-01,2.175808447023817038e-01,2.441247008897807491e-01,2.607386861996731642e-01,2.772494965723986682e-01,3.018264160130004203e-01,3.082615414856276215e-01,2.988589462885120063e-01,3.005979594647928410e-01,3.026316339511369025e-01,2.925333799852571914e-01,2.898458507823176711e-01,2.850559086074125337e-01,2.878447144464097440e-01,2.802429627924383770e-01,2.600102685775539935e-01,2.540835826596274383e-01,2.435798327652977380e-01,2.430177503506090464e-01,2.527521109731236670e-01,2.485717665188633962e-01,2.361214803577104115e-01,2.317016704641735314e-01,2.325138249738163132e-01,2.279312402682289740e-01,2.234644831411330412e-01,2.235550878278536324e-01,2.194315564123458795e-01,2.205487573036835902e-01,2.160923264537261135e-01,2.122299394898744807e-01,2.295027651336334351e-01,2.477351816097639325e-01,2.509610019788867663e-01,2.526857061549628303e-01,2.657576369098382796e-01,2.864362569878085574e-01,3.046506647620347286e-01,3.043464543308561643e-01,2.989481304088158486e-01,3.039672060387566543e-01,3.115765212796365868e-01,3.140624221005257621e-01,3.022697952212566319e-01,2.935542836839540315e-01,2.968029389977014376e-01,2.946934999884802120e-01,2.865165284668325651e-01,2.685911198214773754e-01,2.408557841598313598e-01,2.169147665744182996e-01,2.097998245141474427e-01,2.007895883016779792e-01,2.076706322259368742e-01,2.225699884678045970e-01,2.304390961074422040e-01,2.472627569695286520e-01,2.623112657263089731e-01,2.813763191261275942e-01,2.920778975896019536e-01,2.910960267947342861e-01,2.941628812896894263e-01,2.821329455345541470e-01,2.776069300697538433e-01,2.742978812494435426e-01,2.664153800373325054e-01,2.687444400063525585e-01,2.568370553035669857e-01,2.372224196135721552e-01,2.264175972185167307e-01,2.194476693661323308e-01,2.024026522456236210e-01,1.771500437749671530e-01,1.471269009200681932e-01,1.214715327619184104e-01,1.069675864212841221e-01,9.776976053519888243e-02,8.416925302199676495e-02,7.438133508238399527e-02,6.728795842991397436e-02,6.884376906078894243e-02,8.745971685741572854e-02,1.128094687843023552e-01,1.280352862266362635e-01
2.154602495877565860e-01,2.383193935717709822e-01,2.551020812000339699e-01,2.628282471232813444e-01,2.669994671582044399e-01,2.856212178900030541e-01,3.160879700123306879e-01,3.364219974180421846e-01,3.447866434772837163e-01,3.529644774432523779e-01,3.565401711456688272e-01,3.567484671773235028e-01,3.493580231512842804e-01,3.392503160171603804e-01,3.271724076735951781e-01,3.175445943412956162e-01,3.135138323794368631e-01,3.139008048776675275e-01,2.949600692850699035e-01,2.725847540758145060e-01,2.589941435376377776e-01,2.392810883660306254e-01,2.178934101619282859e-01,2.031766868584457264e-01,1.936515071159971013e-01,1.731419153755130724e-01,1.449125295255584145e-01,1.341072699112880184e-01,1.500301688952662416e-01,1.584258665709281366e-01,1.545010148536891392e-01,1.597443522583570918e-01,1.604162350824198391e-01,1.683204150806064392e-01,1.896333142447769182e-01,2.157757610720135444e-01,2.384548446276977818e-01,2.609474662954586743e-01,2.721685397137835749e-01,2.827023049787855680e-01,3.005157439217594484e-01,3.079902967496065957e-01,3.038640431239866824e-01,3.055455846038932499e-01,3.081008258576722336e-01,3.039391054257332692e-01,3.012142371473907621e-01,2.905611832276596695e-01,2.857083586200831471e-01,2.725182424421933591e-01,2.505441487325409389e-01,2.457170793239380757e-01,2.357725780663417203e-01,2.349370186535531535e-01,2.425010602068094212e-01,2.324419307412791125e-01,2.147136014292944095e-01,2.045046929263894531e-01,2.046036913960280479e-01,2.059712888859284718e-01,2.092535738140218760e-01,2.077954468268854438e-01,2.013509951991012958e-01,2.051177088902786660e-01,2.038285451782452795e-01,1.970332456675314425e-01,2.097164840142208830e-01,2.264790244814843534e-01,2.355689660736681457e-01,2.478865978147153648e-01,2.707161816667237320e-01,2.907802415958600228e-01,3.021491418406083151e-01,3.016548226334892502e-01,3.020674233741824088e-01,3.146248498550291428e-01,3.242243828889757595e-01,3.210054745494260731e-01,3.015971755515604036e-01,2.882652663760873479e-01,2.906165602547514659e-01,2.883258001910939394e-01,2.763183406039720347e-01,2.605453970612908732e-01,2.424190442638524401e-01,2.285878744215458225e-01,2.225842720936799524e-01,2.127343638468931208e-01,2.202520637842257378e-01,2.374820083387824687e-01,2.454527526994086384e-01,2.570444959063228341e-01,2.656319393274860219e-01,2.845241807010685520e-01,2.976664507944316584e-01,2.957371381811396138e-01,2.945801407233222258e-01,2.793781972152963311e-01,2.760516105184319113e-01,2.711803434974471294e-01,2.581598068202931584e-01,2.625778929567076370e-01,2.625730327401081254e-01,2.485945038416252639e-01,2.307832774722873848e-01,2.091188850063460392e-01,1.882797689283957077e-01,1.616685060469988111e-01,1.333812728361270517e-01,1.083554333615655701e-01,8.931063506972655719e-02,7.576596941191199308e-02,6.975519913300318176e-02,6.464378606363772872e-02,5.382398823155775530e-02,4.966549217817722156e-02,7.166503874473743874e-02,1.028425337906816589e-01,1.218835806420825035e-01
2.129871602856034107e-01,2.343141767988282109e-01,2.497267289384868805e-01,2.612820159382498453e-01,2.676177198660198431e-01,2.814110547444115817e-01,3.098383074088771338e-01,3.256773059038255980e-01,3.353484443336605114e-01,3.489735293601247679e-01,3.525560309640132783e-01,3.502388433523718758e-01,3.430398714703686291e-01,3.378333908308283617e-01,3.250461020053103667e-01,3.069172652958100933e-01,2.967334901652235457e-01,2.876086151651108813e-01,2.746478324595810205e-01,2.540814276803445293e-01,2.240241424629441369e-01,2.039441430419925705e-01,1.943135565811939802e-01,1.884708784203654452e-01,1.812230184373369302e-01,1.653293993362212055e-01,1.457722616645777680e-01,1.355989379430653230e-01,1.383854486145598417e-01,1.424905016343326891e-01,1.511859237181408799e-01,1.600768633552432929e-01,1.629313820668841506e-01,1.787548641452359199e-01,2.011789075717818898e-01,2.201396638214757617e-01,2.448517215659570812e-01,2.667768598491616072e-01,2.737769239185230963e-01,2.777089014518399068e-01,2.928090322168427351e-01,3.093814246444319127e-01,3.133534625439041710e-01,3.026040719414943569e-01,2.937747201512220796e-01,2.937779029252152174e-01,2.956324194267718197e-01,2.983383938153428283e-01,2.856486433464329178e-01,2.638111625371429292e-01,2.473710307325133750e-01,2.389712602648163819e-01,2.272428982736373060e-01,2.278640392279379923e-01,2.299605984877849119e-01,2.140916780856919888e-01,1.999851379865109635e-01,1.956445822226290376e-01,1.963467114736884012e-01,1.979623465698653606e-01,1.944922269375635726e-01,1.857526568019366442e-01,1.899358412575106736e-01,1.938115569577564812e-01,1.870346043601875119e-01,1.797549370187259687e-01,1.838507462014005445e-01,1.939450426771033575e-01,2.187492053337094233e-01,2.523629754618201826e-01,2.752916406955737139e-01,2.824427182903107014e-01,2.844240608953997884e-01,2.989702421143314304e-01,3.181611742528074882e-01,3.351513970788738139e-01,3.378476383895130386e-01,3.209055912313761860e-01,3.006372105256215344e-01,2.850798437781528194e-01,2.800872194581096597e-01,2.786922457541026188e-01,2.660474940135275079e-01,2.575121163401841162e-01,2.539843866266478511e-01,2.390672946054292758e-01,2.237656513118500834e-01,2.196877364344374250e-01,2.343350429274498048e-01,2.493844686678010902e-01,2.474258397367119777e-01,2.481276145957989343e-01,2.639015424474736582e-01,2.799604883456565663e-01,2.925865772527844744e-01,3.002180892894620867e-01,2.929077668160855463e-01,2.838330509530855306e-01,2.840290876476215254e-01,2.754979556625244963e-01,2.585302107017511952e-01,2.557742419253368760e-01,2.604129094554779589e-01,2.522854618357792122e-01,2.336847826529331595e-01,2.087806855335864464e-01,1.834269257638959094e-01,1.485183614816874276e-01,1.233028322329331322e-01,1.017914730550451702e-01,7.626330400589949321e-02,6.018324666562231695e-02,5.233320105958474966e-02,5.187605985603831876e-02,4.597925262120340639e-02,3.699066645420893279e-02,5.514581235473164922e-02,8.669043462736497618e-02,1.209910641480826526e-01
2.242955564743133179e-01,2.462121762245520762e-01,2.560854216126977057e-01,2.673030599634946269e-01,2.733077456083284895e-01,2.796624493361145602e-01,3.027000747834273642e-01,3.097220283702659116e-01,3.165143058181450475e-01,3.318652154797878118e-01,3.362358950139299751e-01,3.351900865664717011e-01,3.307120774093886273e-01,3.293567756915414813e-01,3.165163316910293845e-01,2.918004245165031763e-01,2.742343206192194294e-01,2.543904657403550096e-01,2.425659286475114196e-01,2.278828644344632337e-01,1.988723028376606083e-01,1.787391269691443740e-01,1.683750593355356484e-01,1.635353551515751347e-01,1.578971295894109061e-01,1.476446818488658386e-01,1.387141682152102373e-01,1.422187984065262367e-01,1.444368549344192953e-01,1.440215700026760692e-01,1.538741085801748898e-01,1.643956242391276523e-01,1.659388487499924014e-01,1.847459591068632834e-01,2.073349541185414424e-01,2.196100777475699928e-01,2.407000336403524454e-01,2.562307968885228493e-01,2.586310010459985098e-01,2.634910619484083782e-01,2.865012845201814762e-01,3.092917684541061085e-01,3.155208192945683221e-01,2.976723853889934324e-01,2.852493780181002414e-01,2.913694535533591368e-01,2.961591957958039090e-01,2.976839239480584265e-01,2.770539523152393824e-01,2.511079578463032425e-01,2.364316765281415100e-01,2.247264998283765303e-01,2.165149544957629679e-01,2.210097101445166190e-01,2.245206177808657666e-01,2.142902672623840932e-01,2.046494666863380718e-01,1.956725084684654836e-01,1.913059120231876964e-01,1.914095363716943887e-01,1.824122292428584369e-01,1.672638456544260632e-01,1.718950299921337965e-01,1.733019299138575942e-01,1.693479447324062470e-01,1.744283369626873081e-01,1.767822365049338540e-01,1.844818803983017397e-01,2.171532479310053498e-01,2.568317362557261396e-01,2.713862529277348279e-01,2.729587436300736081e-01,2.798600741185600094e-01,3.067317521871614772e-01,3.291595303076539913e-01,3.357746941439770927e-01,3.346937216848734908e-01,3.233880065189583819e-01,3.100534242413284236e-01,2.906216416834537797e-01,2.745202121989418487e-01,2.733638479395527621e-01,2.654976632416234938e-01,2.636033290707446852e-01,2.692075087890385965e-01,2.563075348012283095e-01,2.346756991557983063e-01,2.204777305669736731e-01,2.305567809461379347e-01,2.435725856078753138e-01,2.379559046335492922e-01,2.321118984080401126e-01,2.475690756482261667e-01,2.595587689049650981e-01,2.716986229738279079e-01,2.870447150771640588e-01,2.812321752832001032e-01,2.786430916327941043e-01,2.812354295338788113e-01,2.772029345364360187e-01,2.693774917897020504e-01,2.583158934011251517e-01,2.449992015815901092e-01,2.306038684598527289e-01,2.150569628383835474e-01,1.952663156370277042e-01,1.695943779568895582e-01,1.367083390710434609e-01,1.159843075995010686e-01,9.991541338004999995e-02,8.042285373043163432e-02,6.763284835239995185e-02,5.092763452068422431e-02,4.761639869908326772e-02,4.798346550262003185e-02,4.321270141987691021e-02,5.691899154227583052e-02,8.081561847804485943e-02,1.192807404276809008e-01
2.247072947706854618e-01,2.497832669047985177e-01,2.626387564965570465e-01,2.749625585560090957e-01,2.816035124421128466e-01,2.840658698597444687e-01,2.986553652994783370e-01,3.007910600919918576e-01,2.999546371033625647e-01,3.065993299831877295e-01,3.139920117026004376e-01,3.219073025454026737e-01,3.235806549908823437e-01,3.166685410064317141e-01,3.001519551308152733e-01,2.777698480876677478e-01,2.558063236772989968e-01,2.336141725417794912e-01,2.187630223208573976e-01,2.029277281385513387e-01,1.799238475650106750e-01,1.611339899417276178e-01,1.392887009675442267e-01,1.286206372125895114e-01,1.256031570326779367e-01,1.208703297223353151e-01,1.198619516356323605e-01,1.409839392672058989e-01,1.547074610769259839e-01,1.574073033075942818e-01,1.638866929259621685e-01,1.735136173363794887e-01,1.733234097787685613e-01,1.864846088390141043e-01,2.062181514089888035e-01,2.190522480365498792e-01,2.316164928288499403e-01,2.417881346736131531e-01,2.459320255232175234e-01,2.564017682716507873e-01,2.817955996802618546e-01,2.991987873700632239e-01,3.003865450779763524e-01,2.885605452696068940e-01,2.811828758747610957e-01,2.891463518053943860e-01,2.977237657753263878e-01,2.939825285898187701e-01,2.720610084540309170e-01,2.456928729491399954e-01,2.223888362361086390e-01,2.085744361947786674e-01,2.087330589638830003e-01,2.124936538490902194e-01,2.164951103557411494e-01,2.195873007084664097e-01,2.136857840886089710e-01,1.943647804783514010e-01,1.863955663849776179e-01,1.861861035302006251e-01,1.734044846155688158e-01,1.561636128832610548e-01,1.537041977704687590e-01,1.573775325714827367e-01,1.612644186342807873e-01,1.721007701470732010e-01,1.784505545929309933e-01,1.872852595110033880e-01,2.196620875983162358e-01,2.586359177254314301e-01,2.708731404229462458e-01,2.745595400899586980e-01,2.908984903274020040e-01,3.193974660092294138e-01,3.325143830457229499e-01,3.266700511688419573e-01,3.259707437016290954e-01,3.255405607288093250e-01,3.215117132982956427e-01,3.036860976191416706e-01,2.823649206528232591e-01,2.808014301713896432e-01,2.764952726066149946e-01,2.722113960227042218e-01,2.733583711578645992e-01,2.658722241567588185e-01,2.502153904339166068e-01,2.318360431818190515e-01,2.283046589990835873e-01,2.316907832078521357e-01,2.285893128093980098e-01,2.241215056603015066e-01,2.314533300632232726e-01,2.361452776598462755e-01,2.449730351883547264e-01,2.617473778587749988e-01,2.663825514823633944e-01,2.753319264180229542e-01,2.810901632234015235e-01,2.776502944310231813e-01,2.712896320073055478e-01,2.570161934301836704e-01,2.301135965855753696e-01,2.119773339385388755e-01,1.977488182779313652e-01,1.734941832590996547e-01,1.475640631064436270e-01,1.215720433944940948e-01,1.049579847904126284e-01,9.110855470937070932e-02,8.036383547292125229e-02,7.712976205364405202e-02,6.158020731823567184e-02,5.632799879906112694e-02,5.877449648287284834e-02,5.961779911132362997e-02,7.373770788954452093e-02,8.712922077082461969e-02,1.157885628370496078e-01
2.176386585703154464e-01,2.465508844285721479e-01,2.648525874772544864e-01,2.793376609743838945e-01,2.878728073650990704e-01,2.857510717351848251e-01,2.892311881743742097e-01,2.924734397654891183e-01,2.832996283484596756e-01,2.773933217793765893e-01,2.931946577540135990e-01,3.142186885929912354e-01,3.304894880207890906e-01,3.161085623131831279e-01,2.917292087028500736e-01,2.735530405239861018e-01,2.494065690581196149e-01,2.280433117790958697e-01,2.096897570661224175e-01,1.841966660331242345e-01,1.556265147065933607e-01,1.387926017667733269e-01,1.208080209206515709e-01,1.116404862697433914e-01,1.111353966922887238e-01,1.101045416172206082e-01,1.119251684812024444e-01,1.259033641471314358e-01,1.418655470060098955e-01,1.554494899759103488e-01,1.670624070848065745e-01,1.778686574577328650e-01,1.904537237967780516e-01,1.988997489796851537e-01,2.091603027011106064e-01,2.222297146931172251e-01,2.260153753706283797e-01,2.323088704167662888e-01,2.417405895733286958e-01,2.571152901157328641e-01,2.731461209174402271e-01,2.760585222934131000e-01,2.709074490056926909e-01,2.734152035456041130e-01,2.691672269137563855e-01,2.658387204805562898e-01,2.792344799552985424e-01,2.823003907628176545e-01,2.691159070637277329e-01,2.508818240853720738e-01,2.257963145979486330e-01,2.093913074280785436e-01,2.081371477308038564e-01,1.998127242552119043e-01,1.933433424760487851e-01,2.011913244164438841e-01,2.005425789073596032e-01,1.896929623627325034e-01,1.920089297435213505e-01,1.923529588058138506e-01,1.720140418771424762e-01,1.559435644353166783e-01,1.480291937443406203e-01,1.590825462962012493e-01,1.659274348843991775e-01,1.640489908710764111e-01,1.749284098343669158e-01,1.845331537428703816e-01,2.146601637704052823e-01,2.568777782452311698e-01,2.759918115123233817e-01,2.825854040569431569e-01,2.977564299204819576e-01,3.171582104596168405e-01,3.257643443233081415e-01,3.273054590025262778e-01,3.286264611897846688e-01,3.240246864070979171e-01,3.262303233746817743e-01,3.195817960008718872e-01,3.024908633947613890e-01,3.023741729355845509e-01,3.030427770681429211e-01,2.902194565816679783e-01,2.756859069698388010e-01,2.704571030305975565e-01,2.683349640139076064e-01,2.630183771717922725e-01,2.467844829381655447e-01,2.308640039353857254e-01,2.255016188896863116e-01,2.253902363894572658e-01,2.277920596384823693e-01,2.232380494709033658e-01,2.266469672389632428e-01,2.463465889979952472e-01,2.638752042895466943e-01,2.791652019822964959e-01,2.838992613761606165e-01,2.740169212852141545e-01,2.593733001518890302e-01,2.480765350805561598e-01,2.237004137694195149e-01,2.111334467670072101e-01,2.022311327543493686e-01,1.746663566592337180e-01,1.463244642573726384e-01,1.153239536034338653e-01,9.686310547615022137e-02,7.873718084576911136e-02,6.618315073447633701e-02,7.385843538473366165e-02,6.886431926910822898e-02,6.742135555126772817e-02,6.868448276852812118e-02,6.767855450685585084e-02,8.632287629166730814e-02,1.028042239279456371e-01,1.232959091427549003e-01
2.235017691482617253e-01,2.531009098435910709e-01,2.611078012801844039e-01,2.700400785004560822e-01,2.782930243570225781e-01,2.748267458663837814e-01,2.766675759015906344e-01,2.830489351785815955e-01,2.743303486233219513e-01,2.685625400664339302e-01,2.875493375632834914e-01,3.071942368793745270e-01,3.182372459832851774e-01,3.021505126767339289e-01,2.760596180570978331e-01,2.523968103904170590e-01,2.278758319263293197e-01,2.076581134313492949e-01,1.914687621499191472e-01,1.696349252866951318e-01,1.437991191120887580e-01,1.254575548022874854e-01,1.139938558081589060e-01,1.104499083621113126e-01,1.120043028960723691e-01,1.115723814563740618e-01,1.117753579875799264e-01,1.125780838667126971e-01,1.232760405619073990e-01,1.390348250590330015e-01,1.538236627159682846e-01,1.682890396232457342e-01,1.882491920976445132e-01,1.977044703997323238e-01,2.082434820690099442e-01,2.267879956686801590e-01,2.311111981068723065e-01,2.265342306491002766e-01,2.289501152935302097e-01,2.413911038703988321e-01,2.526195423504997151e-01,2.533488927974657523e-01,2.548307608784965428e-01,2.613915565506990668e-01,2.553993332376194303e-01,2.469282688814095350e-01,2.568729330778437570e-01,2.567492281016963696e-01,2.460144255039632133e-01,2.392715547325913183e-01,2.298301117482707823e-01,2.137722136373369219e-01,2.039604423570748060e-01,1.895957716089785583e-01,1.771353589122035277e-01,1.768272219379120325e-01,1.773197056503375835e-01,1.783391614564167060e-01,1.883184845540987751e-01,1.945624275517350565e-01,1.826717386485372518e-01,1.671029866629238636e-01,1.523873921635014728e-01,1.608617469790207255e-01,1.688951109980822429e-01,1.679939076009841770e-01,1.795369076545476061e-01,1.894831125282155360e-01,2.196882386028836120e-01,2.622445431774143021e-01,2.846186381558170608e-01,2.938642580765224444e-01,3.002420589503373427e-01,3.106062315889749348e-01,3.200335706327496754e-01,3.300485913667711158e-01,3.330798692979956566e-01,3.283994394121870219e-01,3.336298648191691196e-01,3.344300284850762472e-01,3.246109430614250724e-01,3.256787754084696784e-01,3.249160429236696568e-01,3.115492809893348758e-01,2.977230580592533649e-01,2.944831912095698945e-01,2.921414183903323636e-01,2.839039230110514955e-01,2.649495993377427028e-01,2.463558889584709921e-01,2.370168433026863808e-01,2.310893779939852954e-01,2.250551836730041444e-01,2.145531468995116320e-01,2.165785026792703127e-01,2.384354024034760489e-01,2.554702125373115029e-01,2.613100672170139416e-01,2.615246468039081340e-01,2.547190608738375550e-01,2.461442778003773701e-01,2.384160507008308838e-01,2.181360510981119882e-01,2.088282935463666723e-01,2.047483951149067782e-01,1.838695807995393283e-01,1.571267841834430301e-01,1.218798457218320669e-01,1.010054796367386709e-01,8.143307633569775439e-02,6.535449811798221820e-02,7.290060666800254885e-02,7.257316115854277327e-02,7.600004960944484189e-02,7.862943120271286002e-02,7.559500362273458007e-02,9.379069454051949806e-02,1.181468952209021317e-01,1.408244601639869198e-01
2.227820112727678104e-01,2.513137821863088983e-01,2.549267879773833290e-01,2.618903200277731824e-01,2.679152112483114134e-01,2.673643901420714175e-01,2.777631522066468239e-01,2.796389973455054578e-01,2.700426257776215588e-01,2.644820591286286549e-01,2.759788225712973553e-01,2.905866012337605664e-01,2.893042377288652101e-01,2.778818015527412255e-01,2.580660418556055546e-01,2.290300417721953530e-01,2.102960561027240605e-01,1.920956657077860785e-01,1.809421763774611003e-01,1.652823039018684603e-01,1.325793869972251016e-01,1.109017291034171959e-01,1.086863442349934455e-01,1.140255695899121541e-01,1.175816020058915168e-01,1.167431744169484392e-01,1.150695237028738771e-01,1.147341159155365331e-01,1.261154154663912952e-01,1.393170477992559109e-01,1.472922566840398906e-01,1.582345130101574515e-01,1.714732691468007220e-01,1.874089522667379271e-01,2.068409860219876384e-01,2.211476555224865803e-01,2.230995180223009633e-01,2.181903812431704170e-01,2.262011126050429977e-01,2.402731080864665969e-01,2.463934665016523640e-01,2.480616442812057787e-01,2.607168587319080855e-01,2.611051254623801277e-01,2.482178718493933400e-01,2.410475572881095319e-01,2.415723642753788147e-01,2.400721972576387031e-01,2.289655953883442396e-01,2.207578800236365546e-01,2.168149538631981843e-01,2.045754636001895777e-01,2.009122565794693727e-01,1.887872334525643736e-01,1.759326210997470552e-01,1.691763119760092693e-01,1.636833009007197248e-01,1.735322973689262804e-01,1.819070313789677984e-01,1.885126098855449128e-01,1.908049529452731929e-01,1.746588755035357876e-01,1.612281898625907428e-01,1.620061388546889525e-01,1.694196265058748596e-01,1.831792990124251896e-01,1.915526661466600278e-01,2.014806743730002125e-01,2.341807449398194130e-01,2.677674890591730250e-01,2.855027035554257298e-01,3.057858671135507134e-01,3.064893012331367239e-01,3.109620535759627380e-01,3.226931103944771229e-01,3.302993967834040867e-01,3.328157943234491545e-01,3.352120624896223755e-01,3.352564488394914610e-01,3.371558495030124170e-01,3.365186047602349295e-01,3.289429526832603479e-01,3.241543452136421144e-01,3.259155922995670140e-01,3.208474587274927625e-01,3.058811157268787606e-01,2.946582456815622919e-01,2.835455715117576325e-01,2.770134737818320536e-01,2.658189017997278913e-01,2.496371493520452844e-01,2.393313514756604810e-01,2.221653687882161610e-01,2.146799327775185395e-01,2.220179424066172913e-01,2.290806808999679700e-01,2.310401924164288689e-01,2.322593017066369447e-01,2.398367651203593687e-01,2.405049103085243611e-01,2.318550540707282892e-01,2.229710167038415070e-01,2.074047462540985487e-01,2.039408783813325410e-01,1.997429008897108893e-01,1.781523955291480221e-01,1.589145065674834045e-01,1.388529925576889035e-01,1.200628061147788472e-01,9.962206553806321474e-02,8.284328663147776106e-02,8.247020014309724978e-02,8.281622158529067246e-02,8.109966409651651886e-02,8.074708685544186582e-02,8.908502904958691404e-02,1.056697106864150082e-01,1.248364306793424555e-01,1.491712918032578328e-01
2.055470807897720742e-01,2.309636528025521551e-01,2.423104045673943052e-01,2.538367543084622535e-01,2.593272287428715628e-01,2.629242244353009461e-01,2.816536537012141461e-01,2.867322961494195854e-01,2.784840615165951050e-01,2.676581408050740518e-01,2.638944491767314382e-01,2.714317735129587184e-01,2.632711845862437117e-01,2.538367543084622535e-01,2.375953621726458742e-01,2.080004556240619418e-01,1.914889271889300137e-01,1.681487515468734484e-01,1.563989173851174086e-01,1.491481952229888330e-01,1.254460170069982838e-01,1.070815914730271629e-01,9.960128653645905494e-02,1.042111347122586518e-01,1.103266712693629498e-01,1.111996380447688448e-01,1.111301887596830990e-01,1.176095469218030876e-01,1.331660261052133032e-01,1.506484364684217703e-01,1.635440986306587186e-01,1.681437524928058036e-01,1.656148681801808964e-01,1.790239445103604665e-01,2.006549069054562318e-01,2.092903191810343566e-01,2.100562409107058770e-01,2.108245744746338746e-01,2.248818574842129658e-01,2.406183899673792204e-01,2.461842917317928481e-01,2.498279575203169733e-01,2.607770094143417317e-01,2.538367543084622535e-01,2.374201228103332839e-01,2.303936800746393121e-01,2.254045019110172965e-01,2.297966060919087450e-01,2.210097101445166190e-01,2.105610829116485172e-01,2.093452323981980223e-01,1.999735080006536103e-01,1.929942681653965542e-01,1.790239445103604665e-01,1.714787332554681132e-01,1.706004773043416078e-01,1.621722445899227427e-01,1.732942066129422309e-01,1.801665893196003065e-01,1.836571990765249185e-01,1.854973578942412937e-01,1.708190733335894773e-01,1.738672582059791472e-01,1.790239445103604665e-01,1.808184204829269004e-01,1.907273967740912568e-01,1.965267041239881218e-01,2.062227698198268455e-01,2.396632334475892745e-01,2.736538401466950821e-01,2.990986551176776920e-01,3.249988228333731133e-01,3.253787226333042515e-01,3.286495641065640405e-01,3.329203616804800592e-01,3.209493878331737271e-01,3.198063465394283544e-01,3.314162239337825056e-01,3.313790557744313303e-01,3.354710184690122832e-01,3.442908407346761956e-01,3.324302846538962908e-01,3.209260721906894154e-01,3.286495641065640405e-01,3.307443963278814403e-01,3.139010918310652931e-01,2.984518496274198851e-01,2.822907289423394750e-01,2.796267171884241343e-01,2.715651207342933415e-01,2.532110386199842300e-01,2.435013034023034151e-01,2.227108146949497436e-01,2.164303494094113600e-01,2.234093828271857263e-01,2.163580434896721083e-01,2.053225707596211258e-01,2.000754242070098832e-01,2.098287140227108050e-01,2.123409864945102477e-01,2.004176971507164173e-01,1.906738089059609731e-01,1.781701041520259154e-01,1.790239445103604665e-01,1.813598092691733610e-01,1.726062765763880791e-01,1.632028784528880561e-01,1.475219044925746015e-01,1.288584455412545571e-01,1.107641817375043802e-01,9.557617832597066487e-02,9.247463030526457961e-02,1.037874502834228718e-01,1.042111347122586518e-01,9.919967217321366826e-02,1.074876862865702387e-01,1.188226152545968639e-01,1.213264909449510848e-01,1.388880407017161478e-01
1.984291515740494449e-01,2.186576979771422125e-01,2.268855761178213692e-01,2.351621385728264457e-01,2.443633354824241710e-01,2.598918394251946151e-01,2.826493883281457342e-01,2.953998276302621795e-01,2.908929764884434777e-01,2.747795329802854569e-01,2.594100627745770660e-01,2.602536786076828368e-01,2.461521359784418772e-01,2.311520245825897102e-01,2.133581010731626093e-01,1.875241066879118623e-01,1.706662382877888462e-01,1.419664749430536999e-01,1.252629955047455668e-01,1.222456474863358455e-01,1.168671939555745165e-01,1.088173805253415394e-01,9.586175715364592120e-02,9.636515895630490269e-02,1.048696307529661947e-01,1.114455405299333568e-01,1.178359744252503588e-01,1.297063871742020202e-01,1.465778785058431954e-01,1.692068777178673267e-01,1.859371515428484556e-01,1.818175978717204155e-01,1.715431791867113587e-01,1.794300849524357588e-01,1.924147497392154627e-01,1.986757017410945292e-01,2.052710558355949344e-01,2.052252636856412293e-01,2.128960557500520212e-01,2.287226789271117611e-01,2.439101825463906859e-01,2.525587448914012323e-01,2.572202815663501840e-01,2.511851139121166199e-01,2.358273065063371809e-01,2.211378781738462529e-01,2.155274469223205369e-01,2.171249848317520215e-01,2.080829343585792746e-01,2.009400238467868860e-01,2.024913896419469339e-01,1.942455314268120570e-01,1.837580116551345844e-01,1.684365093632653743e-01,1.640769690536673930e-01,1.677087284260695976e-01,1.598101044159506157e-01,1.732658688333882369e-01,1.862371871189143491e-01,1.882053054268782444e-01,1.839975357637080311e-01,1.765727288419764174e-01,1.851778687787566380e-01,1.937968621376194578e-01,1.980375841440147056e-01,2.024606091376484063e-01,2.052688783390698435e-01,2.142903896928164131e-01,2.474708533445309222e-01,2.861103567948132809e-01,3.167196712137573256e-01,3.352926339345208007e-01,3.346387214538442678e-01,3.403327395371369413e-01,3.382548896161971519e-01,3.133987694982072747e-01,3.079854669708872450e-01,3.197599053497705568e-01,3.255453982018627346e-01,3.348135557321015865e-01,3.438328956995295727e-01,3.331183717453858883e-01,3.257593160760320350e-01,3.305808805281060803e-01,3.310193801707758121e-01,3.235618000253887572e-01,3.126636253308830993e-01,2.918802842355056049e-01,2.779047354204762788e-01,2.666844450137889622e-01,2.553178471853414511e-01,2.464963113462325939e-01,2.273869204499082419e-01,2.149905688828118999e-01,2.144595163593653042e-01,2.055542181897828669e-01,1.886940440919519790e-01,1.735280003096851820e-01,1.758258778586066495e-01,1.771543535072289677e-01,1.667488426065102669e-01,1.561080944162058504e-01,1.519858497649094753e-01,1.546762791094352663e-01,1.610619834221029556e-01,1.679731618660594283e-01,1.654901133800489310e-01,1.555972736914328358e-01,1.432089478521816894e-01,1.252541768927533938e-01,1.060007879215278948e-01,1.043827219815633700e-01,1.213660042920479687e-01,1.292794546048939563e-01,1.237161329317173347e-01,1.185661010947357263e-01,1.246662139067074293e-01,1.248561145961736979e-01,1.399334055934491339e-01
2.016511199106321151e-01,2.163818402543360719e-01,2.203353307353713431e-01,2.235855866968969596e-01,2.343919773782669469e-01,2.575616637777429774e-01,2.787710972890456995e-01,2.896373037230159375e-01,2.859572667044706362e-01,2.705395113845890931e-01,2.569965312385307787e-01,2.569395488112780623e-01,2.445498425179837843e-01,2.242053474234584620e-01,2.012600676332321481e-01,1.772660817998806260e-01,1.605977588061797690e-01,1.384796167962951963e-01,1.207879137022977584e-01,1.099351225659793568e-01,1.052839610215322297e-01,1.073937011281475978e-01,1.032909661396475137e-01,1.050057561946386164e-01,1.113635852930087017e-01,1.204808696063157519e-01,1.368158310953502821e-01,1.523384571044082980e-01,1.672480754379590540e-01,1.880156509561002887e-01,1.937576137924380271e-01,1.796329364507139592e-01,1.733617429508105545e-01,1.807503982704962153e-01,1.820717774801210997e-01,1.876989087178574933e-01,2.031599170574691360e-01,2.055777194014992981e-01,2.052839968001853588e-01,2.170083074982038229e-01,2.376059819377084326e-01,2.509450588379203984e-01,2.502575954400936276e-01,2.508490480329174099e-01,2.417697438575036328e-01,2.226263883887119321e-01,2.222174434184656378e-01,2.168491410338800052e-01,2.054728191513704172e-01,1.981438906468360184e-01,1.897134670839595305e-01,1.790066046497552077e-01,1.750949561267988452e-01,1.640097932179779006e-01,1.590702149944291655e-01,1.611084214435056505e-01,1.545593198011759595e-01,1.670654096855023751e-01,1.866108656184057857e-01,1.913455622841691850e-01,1.899908525774329504e-01,1.948894865340627391e-01,1.955835679643546654e-01,2.010493865843380745e-01,2.185150622236808338e-01,2.306383648748706328e-01,2.301331394301870947e-01,2.374746470110215557e-01,2.690823581833128864e-01,3.036993628772803322e-01,3.196832797403959536e-01,3.223659753740251155e-01,3.230302683316340073e-01,3.372121610522306190e-01,3.418490931705963631e-01,3.274593121897597103e-01,3.201824980883924976e-01,3.160524131370430201e-01,3.223360118269553709e-01,3.327451168868729159e-01,3.276460147519247301e-01,3.176856360097931042e-01,3.248910294924401976e-01,3.269893703300665866e-01,3.183977172029836544e-01,3.189693916233846127e-01,3.178614677226725416e-01,3.042871401667983089e-01,2.762021963293580518e-01,2.549211285684144235e-01,2.475350712179771040e-01,2.360655740056995244e-01,2.249152088578628694e-01,2.059843485469362301e-01,1.954241323114924711e-01,1.925958960870089443e-01,1.779640038343636432e-01,1.693367517394598898e-01,1.685819755920589802e-01,1.677740940565310701e-01,1.587546203434737069e-01,1.435000616216580704e-01,1.482464645377070678e-01,1.502403968836694415e-01,1.524369626840623715e-01,1.627735608663405942e-01,1.600960638868555164e-01,1.632614938893826029e-01,1.649512112780875950e-01,1.512284199774906190e-01,1.353030649168353305e-01,1.346262559085741328e-01,1.322266805365998887e-01,1.383566645636331860e-01,1.401335243584818091e-01,1.296515602919920407e-01,1.343516301916672095e-01,1.373822604410112058e-01,1.523322437033906296e-01
1.970287347510656095e-01,2.097407116615894740e-01,2.230573579940322848e-01,2.329977242260096726e-01,2.412271946412211654e-01,2.553858880678472887e-01,2.727252345105370956e-01,2.791639355854398930e-01,2.743827207866785245e-01,2.626264175004509593e-01,2.566683334947695294e-01,2.589359021568065633e-01,2.536507804449887882e-01,2.350010187660316607e-01,2.070447620850187909e-01,1.758113047899901304e-01,1.585945708977462010e-01,1.447196194462781471e-01,1.334633218194594961e-01,1.222084476444328660e-01,1.125643012211878374e-01,1.148467794092264266e-01,1.176307780786823576e-01,1.219664879962650272e-01,1.240490423235405537e-01,1.285845670799624640e-01,1.471297270036895644e-01,1.592112419531704348e-01,1.713726908493465595e-01,1.910079926152787599e-01,1.939715023602469057e-01,1.786770857435834581e-01,1.726201897427112053e-01,1.805823223331477212e-01,1.838790475460199692e-01,1.898555228204188705e-01,1.986613024739050659e-01,2.021102161822171117e-01,2.061373355558335785e-01,2.157829277783848143e-01,2.261027819583357468e-01,2.344055189535181327e-01,2.286001204067319992e-01,2.285680463491038816e-01,2.251632836345617839e-01,2.174739227659915064e-01,2.227388800045582429e-01,2.236240918599344818e-01,2.136474531796064003e-01,2.027185978939923250e-01,1.880793431820663719e-01,1.740325322742279912e-01,1.648801827875220616e-01,1.522292552689595013e-01,1.477392831763451875e-01,1.506843126585709347e-01,1.466946834748143746e-01,1.566921167717185981e-01,1.763671127015969398e-01,1.870524905185075304e-01,1.942402549241121767e-01,2.034460720549794432e-01,2.105453018325922632e-01,2.200355205580311890e-01,2.385753044053241234e-01,2.517292526872841329e-01,2.545942990582834020e-01,2.613514498346675707e-01,2.868386227932916976e-01,3.126568229738576066e-01,3.196378284041782036e-01,3.188972767041719503e-01,3.236835053799091422e-01,3.424820272476082894e-01,3.550497169799457509e-01,3.537971207034508736e-01,3.474489126908494874e-01,3.290224586892021574e-01,3.233845793720684370e-01,3.255241745130135755e-01,3.133309181452524905e-01,3.037204903869543671e-01,3.128108888867960347e-01,3.169410118572076884e-01,3.122508780583878041e-01,3.183199018006367398e-01,3.195500156857598584e-01,3.082828158665596452e-01,2.766007478950592291e-01,2.457133498349822198e-01,2.273792319149358920e-01,2.137788303119783906e-01,2.105399370713552099e-01,1.945289636484502649e-01,1.830326146814504618e-01,1.824165320728500517e-01,1.715457008915313997e-01,1.706679611396954843e-01,1.728845222511431468e-01,1.712210045223529209e-01,1.606555345277553837e-01,1.455385808227816768e-01,1.490988428594275661e-01,1.539193394963536687e-01,1.619012098639595054e-01,1.749916735538197821e-01,1.702724886654222447e-01,1.671207618191605793e-01,1.711975105523626806e-01,1.713121497926138048e-01,1.731477069459838314e-01,1.715367039520333536e-01,1.546604584271892846e-01,1.524781166383790965e-01,1.542868842538148155e-01,1.471379495310998486e-01,1.518211724601543633e-01,1.463182929488880402e-01,1.559447321636547867e-01
2.049006030159095382e-01,2.212085044091557373e-01,2.378324973602369274e-01,2.448739002574393808e-01,2.555272773391989438e-01,2.746249913764620132e-01,2.811194397117048327e-01,2.759375827514307655e-01,2.747901068056478602e-01,2.710339637715777350e-01,2.652039406403096100e-01,2.628082510201627531e-01,2.611041659336681975e-01,2.403515653999435675e-01,2.070842500860742563e-01,1.734085647836980382e-01,1.527916689926185623e-01,1.424026022167526884e-01,1.436760627230376786e-01,1.445828589957458554e-01,1.312666406040564060e-01,1.233144670843252522e-01,1.323118086113602987e-01,1.391829685978224762e-01,1.361922637950528647e-01,1.429027731027909531e-01,1.607283724880610998e-01,1.689661201962367187e-01,1.842027676399948521e-01,2.084838750149908271e-01,2.114974521308234101e-01,1.962872926582015232e-01,1.820201670558315998e-01,1.911107040536854651e-01,2.059469913106419525e-01,2.088422225539657007e-01,1.969691536756526806e-01,1.854616561844310285e-01,1.957191321722521749e-01,2.149133349684426986e-01,2.235580300053969793e-01,2.215791422323132587e-01,2.114587726005989765e-01,2.078782825558704861e-01,2.083045296505397215e-01,2.144893420873346668e-01,2.190348651781957590e-01,2.216281517454031791e-01,2.142703353164329694e-01,1.987254709565160482e-01,1.765498835439464342e-01,1.617395061929956246e-01,1.500794146696710629e-01,1.415117814429384668e-01,1.379335825558896667e-01,1.373018379041062720e-01,1.382277722485388272e-01,1.518423810997914514e-01,1.768976750507062767e-01,1.962887980320203729e-01,2.027106702406178129e-01,2.090996840221259478e-01,2.193774110444557390e-01,2.287392878259859874e-01,2.421164491902082772e-01,2.604878004451409157e-01,2.744359682936808320e-01,2.905143794990875383e-01,3.025371248990896822e-01,3.133097392645836643e-01,3.251841750187032809e-01,3.318492375163024088e-01,3.436876361781704969e-01,3.586837655298680816e-01,3.657255466941087829e-01,3.680810439421822178e-01,3.672127824783278927e-01,3.426468027965620111e-01,3.212356822339120233e-01,3.096211647035415071e-01,2.955267090085323956e-01,2.915300564819515716e-01,3.071442635377977792e-01,3.189107894256706377e-01,3.243284702553467236e-01,3.310093631662613389e-01,3.268086453602121466e-01,3.096006101954473788e-01,2.756165113187871718e-01,2.395492667826523148e-01,2.146618058318047750e-01,1.997593445867077711e-01,2.006818572155449343e-01,1.923150354277779472e-01,1.847134297257048696e-01,1.810728415576331740e-01,1.691591855200208494e-01,1.617970928517721285e-01,1.664487857578739183e-01,1.635942883188035712e-01,1.508695927873117404e-01,1.492416926964175716e-01,1.580215211717168056e-01,1.688107797394998444e-01,1.788113174738734656e-01,1.809133778430822015e-01,1.791111285564293276e-01,1.835370515983378581e-01,1.871264783291400058e-01,1.931854400323902154e-01,2.066792314326369173e-01,2.009031304204206836e-01,1.771916929786638562e-01,1.719050127116009963e-01,1.708585860017745595e-01,1.573399824110782996e-01,1.553611324024648521e-01,1.533301331115891342e-01,1.674351210768994236e-01
2.042478064965445317e-01,2.258331512220255188e-01,2.475007209953054288e-01,2.538367543084622535e-01,2.655474916355257120e-01,2.866835580879075196e-01,2.879281227243667418e-01,2.827368253820212174e-01,2.864015579176110715e-01,2.813147105937028325e-01,2.638614635668269370e-01,2.541433866444226530e-01,2.484732983925116712e-01,2.241746440888039982e-01,1.956938786891168069e-01,1.771247217217374881e-01,1.583228894516940932e-01,1.440253180485551177e-01,1.496657518845804502e-01,1.638389844342319213e-01,1.611339643693822099e-01,1.521274897810282467e-01,1.585920347660498275e-01,1.635353551515751347e-01,1.597097770895675728e-01,1.689733293345970222e-01,1.841619917432083808e-01,1.908330517478650235e-01,2.080622171379511443e-01,2.312949056495236522e-01,2.280341120712662262e-01,2.126250323392858410e-01,2.047759607454124609e-01,2.191598446981416759e-01,2.313799778272105090e-01,2.176544817419048261e-01,1.940678357615185090e-01,1.818843376197146477e-01,1.966815286077384373e-01,2.176399009789542760e-01,2.236246473229588916e-01,2.170129056548390778e-01,2.116158804345429634e-01,2.100011232279310469e-01,2.050701519090372127e-01,2.025638698157211370e-01,2.038335906246209195e-01,2.043143364607850065e-01,1.980390630402723839e-01,1.878656207213505736e-01,1.769124020060030555e-01,1.666926351005292295e-01,1.585568722112361550e-01,1.532339780095354487e-01,1.488143334310278454e-01,1.434089242720351653e-01,1.421997313942394980e-01,1.459389921542740831e-01,1.683452879205122044e-01,1.910086369026001984e-01,1.952203387099058218e-01,2.017411218085165270e-01,2.182724849496247010e-01,2.306038684598527289e-01,2.469780989725913201e-01,2.771488854608730179e-01,2.973025875494906822e-01,3.129714216611665933e-01,3.159486256233944301e-01,3.170180538658345371e-01,3.272679131418967935e-01,3.381444173104207751e-01,3.527701271656883963e-01,3.640336889227251405e-01,3.673403307743136614e-01,3.708417768691728567e-01,3.708053021050983777e-01,3.507648188034670489e-01,3.258619114205167366e-01,3.074100412232001478e-01,2.921518473811722250e-01,2.890105024545305823e-01,2.973969028853640229e-01,3.074389601512758641e-01,3.169784902792626147e-01,3.227809395199312537e-01,3.159419530516795471e-01,2.999568701575052732e-01,2.681880912283255980e-01,2.363642660152646957e-01,2.204044991772656781e-01,2.075801199278004272e-01,1.979073871866976198e-01,1.867682391897531047e-01,1.809185235421039151e-01,1.725971243923861420e-01,1.556937067795906571e-01,1.447246053747171524e-01,1.517984547126834394e-01,1.496579415132236190e-01,1.390152533889567332e-01,1.479065469654236298e-01,1.593891302031182067e-01,1.733019299138575942e-01,1.905171708224235316e-01,1.988900627183812775e-01,2.024541447655595905e-01,2.120506706727316171e-01,2.145231100299648530e-01,2.157724157339984128e-01,2.221577466451626348e-01,2.139809797022780846e-01,1.960429232125127097e-01,1.931974617503703362e-01,1.908136795647131789e-01,1.738960639820841814e-01,1.647169880564637034e-01,1.614613682389167415e-01,1.774206335873813878e-01
2.009645811765662371e-01,2.271501294989001773e-01,2.546291892421594927e-01,2.638111489589064496e-01,2.731415681347452162e-01,2.875456266312508280e-01,2.884954484882279457e-01,2.902317440299793661e-01,2.977599374052711800e-01,2.881512448324445308e-01,2.595539472731875907e-01,2.428174469215601261e-01,2.319089592169845948e-01,2.116277719711807115e-01,1.902878783110769634e-01,1.795353805555503779e-01,1.680491302887878458e-01,1.540585107627746309e-01,1.594881589974849467e-01,1.796442273201149520e-01,1.871429767916907572e-01,1.844095492456730156e-01,1.905570315460706210e-01,1.999805883720711386e-01,2.013466899929182707e-01,2.053047042897439833e-01,2.144454343703018073e-01,2.192127274031902828e-01,2.369999990477130170e-01,2.533656696138645303e-01,2.400871686211922262e-01,2.276579867735593066e-01,2.340480515105717307e-01,2.498682621391452863e-01,2.518555800735056138e-01,2.286949204856479623e-01,2.051499542599904691e-01,1.950305363495021260e-01,2.010158302358931726e-01,2.101950557484190130e-01,2.159686753379167767e-01,2.154211040977166147e-01,2.159840050997296756e-01,2.181066865775753982e-01,2.088781552069482739e-01,1.935593937174745205e-01,1.971173274260183406e-01,2.033295135310005108e-01,1.967541187652281920e-01,1.873711857597654684e-01,1.858531316784895471e-01,1.821268951628959298e-01,1.768350377405634999e-01,1.673104429938035709e-01,1.580170931956455249e-01,1.487792059674691025e-01,1.440093948506236399e-01,1.447846560308086727e-01,1.597624592893240048e-01,1.781355272859568573e-01,1.875310355488405967e-01,1.974230623536988027e-01,2.153923805830942895e-01,2.355235235633040825e-01,2.590918248935848989e-01,2.884639784358196679e-01,3.086808854048654904e-01,3.248069064334839218e-01,3.307101040390187929e-01,3.312648415329822460e-01,3.323988788718073573e-01,3.394290368393089175e-01,3.575194367295619902e-01,3.681409434272407966e-01,3.680267884774245379e-01,3.681999997038133965e-01,3.615657684025956886e-01,3.410239018728874472e-01,3.203695061608786143e-01,3.058124268230364429e-01,2.904715587198857252e-01,2.814809828886375986e-01,2.754932195736369271e-01,2.824767482929051443e-01,2.962310347656478826e-01,3.055170755122555426e-01,2.989528732868216854e-01,2.813397257787877970e-01,2.529595667382435464e-01,2.280669397210195182e-01,2.211895520763913492e-01,2.138698678615630622e-01,1.961549315562919338e-01,1.822664682531810187e-01,1.770340711518927357e-01,1.615702064039315489e-01,1.410325663832106557e-01,1.372222904845431246e-01,1.491879229364942994e-01,1.503760079364828417e-01,1.416085109892596672e-01,1.509390333596957456e-01,1.680547797403833254e-01,1.851924300795682043e-01,2.087310020873587579e-01,2.309818752485292281e-01,2.362623404172948249e-01,2.427586791825129542e-01,2.468203481525735599e-01,2.435757855456080756e-01,2.369468708028878989e-01,2.281124072379691337e-01,2.210594812835216527e-01,2.193475717382498968e-01,2.141002629257126033e-01,1.979594553107087984e-01,1.822974595383850815e-01,1.667696422017731217e-01,1.774062483510363275e-01
2.005133000994408499e-01,2.266816131277344937e-01,2.537767430292565685e-01,2.644237962736749603e-01,2.783372187728613278e-01,2.989225121237267246e-01,3.025164991052539665e-01,3.034192481582724255e-01,3.116605099140515867e-01,3.047215399882558517e-01,2.759270644836859798e-01,2.509854509232221087e-01,2.271570177382714051e-01,2.134333896788507545e-01,1.950814882293218644e-01,1.750316786593815177e-01,1.719561275302586567e-01,1.630338407237882092e-01,1.668062853359799924e-01,1.856840785607217215e-01,1.947592395635746043e-01,1.985193972295668519e-01,2.066820391856390715e-01,2.259381030694530279e-01,2.367386849812527227e-01,2.334180422917797038e-01,2.369146553052963455e-01,2.436052534870458974e-01,2.650281622220083677e-01,2.812915268864163432e-01,2.734634071903583874e-01,2.670086810807504318e-01,2.665681424395678345e-01,2.669914883177071374e-01,2.606650629646904416e-01,2.442453315551709192e-01,2.261900219014782165e-01,2.132951382247999517e-01,1.996636207351026038e-01,1.915377540747391361e-01,2.056302979540504949e-01,2.186273383981748308e-01,2.150534589744573788e-01,2.152278112253192821e-01,2.113888389119264466e-01,2.001885797986205362e-01,2.119446178566287420e-01,2.247724576328153645e-01,2.143085064548528318e-01,1.957712508751942859e-01,1.882785025315390770e-01,1.861428301431157784e-01,1.806725755132712052e-01,1.635032800755792659e-01,1.512435665002948848e-01,1.476399115880830670e-01,1.449833554175202766e-01,1.550411299447768676e-01,1.602704618511135992e-01,1.670470745401624324e-01,1.832249906834288178e-01,1.967967639325714224e-01,2.098650864974037078e-01,2.396923488074862996e-01,2.708984144997403365e-01,2.885967505056870053e-01,3.056428183553960842e-01,3.229708532218741879e-01,3.371050171116737881e-01,3.479767951486836264e-01,3.477679093689574064e-01,3.445447886078407129e-01,3.605411926961442082e-01,3.672915794740210238e-01,3.622180161914785312e-01,3.591539911747038682e-01,3.435513609232888066e-01,3.156624980086610854e-01,3.014600819816262156e-01,2.955420379323135394e-01,2.781198633418207056e-01,2.617629285604188283e-01,2.562039297451326192e-01,2.709058368164135033e-01,2.858915163573086393e-01,2.890984975739258056e-01,2.819990102624275186e-01,2.625845829538261400e-01,2.421034407870432392e-01,2.221982656869755379e-01,2.127311363000795041e-01,2.102233613928133349e-01,1.934575196036513456e-01,1.831035238532627840e-01,1.822380140190331121e-01,1.651241450558441903e-01,1.460146835244021113e-01,1.402017536390189889e-01,1.503357249296809195e-01,1.584317828348706658e-01,1.549099804741700670e-01,1.602223396757782858e-01,1.874458054110025307e-01,2.074384915663346485e-01,2.258724716733002680e-01,2.485219836120534376e-01,2.545332123827477311e-01,2.656766090098898747e-01,2.775945249928968850e-01,2.763599057357545297e-01,2.655255846219251592e-01,2.546226897929597111e-01,2.475820686627231981e-01,2.398464939268042384e-01,2.279799025462086459e-01,2.088767044855313337e-01,1.867376935889458189e-01,1.658867583350430164e-01,1.726153830469938644e-01
1.882493631834242509e-01,2.098049057165458087e-01,2.414152751680859743e-01,2.582781115054846865e-01,2.788225511110076771e-01,3.071300751858818123e-01,3.135623211671573762e-01,3.113027023362811563e-01,3.192114731362248881e-01,3.189281351701783174e-01,2.988213022119718398e-01,2.717209175329282633e-01,2.390374654829008072e-01,2.222226178015119513e-01,2.050439867604735011e-01,1.866377930717964539e-01,1.852929008826501855e-01,1.751876772079802858e-01,1.753468326965629265e-01,1.913204470727420115e-01,2.028820257746864197e-01,2.116381317130144879e-01,2.183064842173151054e-01,2.334811777888337048e-01,2.416027802040275896e-01,2.381200369984133036e-01,2.453856354764399894e-01,2.564546328723840696e-01,2.799119914109941543e-01,3.047490941338364956e-01,3.141335614234465612e-01,3.100876567859505717e-01,2.927069026058696233e-01,2.793646201103263116e-01,2.681847853803482340e-01,2.517659809117731018e-01,2.354360785887906482e-01,2.331306714551276971e-01,2.202846187377295317e-01,2.033040636160438897e-01,2.096753333581072853e-01,2.238328295803069523e-01,2.158254905710933480e-01,2.131298019229672380e-01,2.133458900519354662e-01,2.104623030516174220e-01,2.250301282058175811e-01,2.354498795083587726e-01,2.254439720340613296e-01,2.099565911383236283e-01,2.010568437518182039e-01,1.911257220358509867e-01,1.799448069308562104e-01,1.616180553172574808e-01,1.548169428503504419e-01,1.629504099285890018e-01,1.615801316421976441e-01,1.563275556054221083e-01,1.491134195489071668e-01,1.505666764752226217e-01,1.665034761788071749e-01,1.850238485792144172e-01,2.082203529009734044e-01,2.438781642726841892e-01,2.786404633388175900e-01,2.973418770819894474e-01,3.104980055761218383e-01,3.170395337307455041e-01,3.297784908234783208e-01,3.477542876821109741e-01,3.520808144120516903e-01,3.411383194484278181e-01,3.433952784159277627e-01,3.447014886986580762e-01,3.442248346640602863e-01,3.495238903621637472e-01,3.334146864320456372e-01,3.062986818023522573e-01,2.950666118229021695e-01,2.905028882375463306e-01,2.720349124413213304e-01,2.556176749012370464e-01,2.526005282933352358e-01,2.673023729047283026e-01,2.724980891709874453e-01,2.592456946010060492e-01,2.523035007492597792e-01,2.480716098015734727e-01,2.396371170675249962e-01,2.237297848527703970e-01,2.126302461557939560e-01,2.085637080301281643e-01,1.880900413614446653e-01,1.764525285218189465e-01,1.791068120350492454e-01,1.727370286572736668e-01,1.617329675932140109e-01,1.495525030557459112e-01,1.536495381268715710e-01,1.645551685178817669e-01,1.694127500343085846e-01,1.786326613746521685e-01,2.029577203696456555e-01,2.182279934108547759e-01,2.331458384584386978e-01,2.565851935001351447e-01,2.685556816991829798e-01,2.844737502255299533e-01,2.956034369072884638e-01,2.952647142198160934e-01,2.885095135044957737e-01,2.736832904364254748e-01,2.550828605273709471e-01,2.423794230829274254e-01,2.318509639381537146e-01,2.138694410523293843e-01,1.891178476698129607e-01,1.672521674658291602e-01,1.700313084080289361e-01
1.896012001879271436e-01,2.063995186294291517e-01,2.277454362741516136e-01,2.532348985234478822e-01,2.791549791543473380e-01,2.970453192317445423e-01,3.071893618398667813e-01,3.088107693838314516e-01,3.124402157036476058e-01,3.154306430577849540e-01,3.108031981664065024e-01,2.903403671567457711e-01,2.636697310601062716e-01,2.438582775875213215e-01,2.281302419121424285e-01,2.120769332451421518e-01,2.006651618685650895e-01,1.882770686697657625e-01,1.850933496879027806e-01,1.944852052071548154e-01,2.144490393920898130e-01,2.313168788570270640e-01,2.447714701148319127e-01,2.472915595773785002e-01,2.407642487415753707e-01,2.408148181677340072e-01,2.573505412098590073e-01,2.717939602983010516e-01,2.946060819441357892e-01,3.240819781918387044e-01,3.422595895109375452e-01,3.418209939153967203e-01,3.170937635100058438e-01,2.965410449142391047e-01,2.865664597158761318e-01,2.735779685820536322e-01,2.542424267539865057e-01,2.536349011500219630e-01,2.474297031976011862e-01,2.294319181954050102e-01,2.261835360305149700e-01,2.387416844209350464e-01,2.311749785913755628e-01,2.230606638420096766e-01,2.208355504783089396e-01,2.242070340667344230e-01,2.384163516850730802e-01,2.430490454700705572e-01,2.425283191954743511e-01,2.352342281459976203e-01,2.160954005664673661e-01,1.996362442946920390e-01,1.849034134687176922e-01,1.661106808801618429e-01,1.624561897294443669e-01,1.768958712951406165e-01,1.749004979588307807e-01,1.558854699504954588e-01,1.448689026517169798e-01,1.457920398794326500e-01,1.607516826992508585e-01,1.871542956096285959e-01,2.141670483871030151e-01,2.485821075906219924e-01,2.858393901863364728e-01,3.016013087667478443e-01,3.054917545905455611e-01,3.050532917222663620e-01,3.244303172126969392e-01,3.492007717840653891e-01,3.519022732752327687e-01,3.342288334184978504e-01,3.241582392255634715e-01,3.311539734781882571e-01,3.404328944199165319e-01,3.381323519157800050e-01,3.164300309092440977e-01,2.920853015756558757e-01,2.809228707502984812e-01,2.760913481327348373e-01,2.709712382028977573e-01,2.617131493876238557e-01,2.531218583468474170e-01,2.607284131322489817e-01,2.598153758494422538e-01,2.417363748887222663e-01,2.380432185780806120e-01,2.328916103078425559e-01,2.244086631842726609e-01,2.153004206186440728e-01,2.116135270432793758e-01,2.081259344695107205e-01,1.856247341992315891e-01,1.735832949621422261e-01,1.720963713076343882e-01,1.709064997511796913e-01,1.784098723859763036e-01,1.743447805688005670e-01,1.752672416498430308e-01,1.802138743966560652e-01,1.803651149048848545e-01,1.963005875621564866e-01,2.233482153611429377e-01,2.404777636231903992e-01,2.538984728246025946e-01,2.736647873735609249e-01,2.926774346644317459e-01,3.102394379342955366e-01,3.172172393534124502e-01,3.100106808580745388e-01,2.914206086541183405e-01,2.718763848896003643e-01,2.522528056112616213e-01,2.456165801197114362e-01,2.437315048351430258e-01,2.269776155149550168e-01,1.986231651679244425e-01,1.743024893408218479e-01,1.743037059508113218e-01
